ply
format ascii 1.0
comment VCGLIB generated
element vertex 1602
property float x
property float y
property float z
element face 0
property list uchar int vertex_indices
end_header
0.344312	0.14999	-0.476403
0.0193966	-0.200454	0.50452
0.0358512	0.116281	-0.177896
-0.145901	0.0234642	-0.644814
0.259331	0.116866	0.16684
0.41724	-0.0570382	0.628063
0.0819263	0.15639	-0.617011
-0.413932	0.0488882	0.698014
-0.0668212	0.158809	-0.747522
0.268292	0.0225805	0.715002
0.0384305	0.0233831	0.75793
0.44138	-0.0776102	-0.536055
0.423626	0.0458142	0.121081
0.294008	-0.200454	0.293173
0.0791279	0.115063	0.634709
-0.259381	0.0190229	-0.341767
-0.01293	-0.188772	-0.492909
0.285096	-0.183741	-0.192066
-0.0131926	0.222171	0.578021
0.401196	0.1109	-0.131481
0.0468671	0.115245	-0.308288
-0.414071	-0.152232	-0.392621
-0.0874303	0.114913	0.51262
0.289775	0.00848014	-0.405145
-0.116074	0.0224611	0.707375
0.48487	0.0911366	-0.554656
0.118732	0.0171665	0.196308
0.506867	-0.0526757	-0.428686
-0.213688	0.160241	-0.698643
0.139315	0.0169912	0.0111998
0.234865	-0.200454	-0.66144
0.380512	0.111789	0.675729
-0.106905	-0.200454	-0.673426
-0.113922	0.017707	-0.182313
0.421567	0.0913024	0.30107
-0.176059	-0.183741	0.822759
0.119566	0.0184543	0.395078
0.424665	-0.0481151	-0.725071
0.0345936	0.0187533	-0.312134
0.00705546	0.0251942	-0.522188
-0.519163	-0.131174	-0.459858
-0.430962	0.0502666	-0.665763
-0.29535	0.0238568	0.782702
0.166228	0.116054	0.332575
-0.34131	0.107417	0.862912
-0.000422699	-0.200454	-0.383298
-0.330115	-0.200454	0.174161
-0.433466	-0.0655939	-0.158612
0.0505573	0.0251942	-0.75278
0.307571	0.0169809	0.0171591
-0.110306	0.11455	0.37876
0.209502	0.00848014	-0.680109
-0.0608006	0.109143	0.833025
0.440134	-0.115209	-0.578649
0.0429873	0.116944	-0.00495757
-0.0805066	0.00848014	0.541741
-0.122507	0.15906	-0.459803
-0.421288	0.0451281	-0.26864
-0.262536	-0.200454	-0.379905
-0.429712	-0.0679201	-0.0583232
-0.426782	-0.142053	-0.665015
0.214957	0.19453	0.616229
-0.362966	0.157621	-0.428762
-0.33129	-0.183741	0.422004
-0.224965	0.0820104	-0.773891
-0.324603	0.0189684	0.454234
-0.314821	0.0169781	0.0985799
-0.421183	-0.158155	0.0790451
-0.457496	0.0846003	-0.798304
-0.501951	0.0211866	-0.52845
-0.198318	0.115881	-0.235158
-0.119542	-0.183741	0.411458
0.410309	0.0938854	-0.733907
-0.409136	-0.148876	0.281228
-0.346621	0.116867	0.165782
0.19245	0.00848014	-0.52478
-0.155161	-0.183741	-0.0455176
-0.143651	0.00848014	0.232466
-0.123607	0.11628	-0.177929
-0.149537	0.212814	0.649887
-0.327651	0.00848014	-0.497476
0.117403	0.0169561	0.085942
0.154622	-0.183741	0.314236
0.208	0.166412	0.705541
-0.19671	0.018169	-0.244888
0.35078	0.114621	0.485538
-0.313177	0.112576	0.638933
0.411614	-0.169411	-0.382686
0.0804068	0.135026	-0.785056
0.362685	0.11626	0.299133
-0.564285	-0.0504322	-0.642102
0.404612	-0.171045	0.739215
0.374855	0.0204261	-0.543054
-0.166026	0.00848014	-0.465421
0.0834903	0.190465	0.70109
0.423261	0.0859042	-0.250173
0.191301	0.112162	-0.547971
0.437667	-0.0860412	0.0926455
-0.0514851	0.113937	-0.424251
0.356502	-0.198028	0.496269
0.429016	-0.136071	0.290297
-0.388684	-0.189358	0.749654
-0.42173	0.0778149	0.233055
0.409858	0.105656	0.0208886
-0.43102	-0.0475046	0.610267
0.0741616	0.116164	0.317598
0.408522	0.134769	-0.397735
-0.166864	-0.200454	-0.262654
-0.459389	0.0251942	0.550889
-0.15106	0.111685	-0.578403
-0.452147	0.00848014	-0.0973563
0.119861	-0.194028	-0.492909
0.45067	0.0131708	0.536147
0.147732	-0.183741	0.757256
0.342772	0.0251942	0.229432
0.281978	-0.183741	0.102398
0.102254	-0.190256	-0.158612
-0.173001	0.00848014	-0.101539
0.0756133	0.115136	0.438245
0.193011	0.018792	0.433944
-0.181219	0.11318	0.600326
-0.253079	0.116051	0.332942
0.120807	0.110234	0.776097
0.0484752	-0.183741	0.0694393
-0.372257	0.112197	-0.545711
0.545639	-0.027166	-0.515471
-0.487046	0.118674	-0.4458
-0.309997	0.110336	-0.653379
0.197784	0.116268	-0.180287
-0.436147	-0.0900164	-0.533358
-0.208669	-0.183741	0.040057
-0.0892125	0.011121	-0.777059
-0.195885	0.113896	-0.427619
-0.215377	-0.200454	0.616393
0.277351	0.110341	0.77049
-0.0658186	-0.183741	0.73843
0.12559	0.0224437	0.706266
0.145804	0.0177633	-0.193072
0.0187658	-0.200454	0.162684
0.0411577	-0.200454	-0.266398
-0.115354	0.117002	0.0885115
0.422811	-0.0241324	-0.161669
0.178183	0.117042	0.0510813
-0.207052	0.109768	0.800399
-0.00757181	0.112712	-0.512776
0.249734	0.1137	-0.44378
-0.258688	0.0229739	0.736535
0.00252983	0.0171688	0.196735
0.407304	0.100799	-0.584973
-0.0790604	0.116649	0.224576
-0.309468	0.115843	-0.239415
0.15267	0.114373	-0.388541
0.534332	0.0959732	-0.661713
0.295216	0.1421	-0.709123
-0.365311	0.00848014	-0.773077
0.412104	-0.128422	0.616309
0.25674	0.0251942	0.26352
-0.441715	-0.0201177	0.279291
-0.309666	0.192763	0.634628
-0.182254	-0.200454	-0.631656
0.331895	0.0251942	0.886812
0.124129	-0.200454	-0.0308923
0.44138	-0.0549837	-0.598142
0.0245387	0.0172074	-0.0867673
0.146429	-0.200454	-0.384205
-0.194101	0.0179782	0.340297
-0.283861	-0.200454	0.704868
-0.421288	-0.0517806	-0.337163
-0.170091	0.0213356	0.635519
-0.437866	0.11908	-0.346815
0.00388751	0.110256	-0.65761
-0.105973	0.116913	-0.0223158
0.238357	0.0172593	-0.0966915
0.378672	0.00848014	-0.101292
0.194053	0.109754	-0.683782
0.352827	0.0251942	0.591947
-0.485898	-0.059704	-0.394769
0.51317	-0.0177817	-0.795034
0.17175	0.0191771	-0.354439
0.373398	0.0684246	-0.794923
0.163683	0.116485	0.255961
0.138409	0.115975	-0.224203
0.398031	-0.179998	0.0241771
0.551184	0.0930369	-0.452203
-0.379272	0.116338	0.045543
-0.194887	0.0192895	0.481033
-0.358937	0.0216299	0.6543
0.0943995	-0.200454	0.40734
-0.441715	0.0199976	0.409043
-0.137831	0.1579	-0.746162
0.216424	-0.190145	-0.726917
-0.0764348	0.0251942	0.809432
-0.372391	0.00848014	0.808976
0.222369	-0.183741	0.682424
-0.421886	-0.113623	0.0988787
-0.411275	-0.172017	0.499768
0.362657	-0.197542	-0.281237
-0.0944291	-0.197125	0.275972
0.421526	0.0924991	0.177223
0.413976	-0.166718	-0.16634
0.0637097	0.00848014	0.88619
-0.285529	-0.200454	-0.553494
-0.257379	0.116903	-0.0282888
-0.0523164	0.195446	0.491354
0.165145	0.115183	0.564625
0.139234	0.0200683	0.545015
-0.119035	0.201297	0.489726
-0.0523892	0.118952	0.662397
-0.510804	0.0551013	-0.672258
0.271301	0.129476	0.390851
0.419095	0.00254304	0.400324
-0.0311385	-0.183741	-0.613303
-0.315298	-0.183741	0.0407964
-0.443572	-0.055217	0.73074
-0.00478609	-0.183741	0.632477
0.135772	-0.200454	-0.607132
-0.371968	0.0170235	-0.00739112
0.204289	0.00565889	-0.798958
-0.419431	0.010318	-0.559148
-0.425002	-0.0407207	0.503801
-0.169851	0.138572	-0.495996
0.243888	-0.200454	-0.282558
-0.0260682	0.00848014	-0.411837
0.380484	0.017152	0.0131003
0.332005	0.018814	-0.319112
0.174046	0.0251942	0.192067
-0.264022	0.00848014	0.180163
0.255006	0.00848014	0.817598
0.364989	-0.180086	-0.581694
-0.458431	0.0153274	0.216324
0.378707	0.165978	-0.642334
0.439524	-0.0550877	-0.312934
0.265906	0.164463	0.511197
-0.212398	0.115092	0.455763
-0.284905	0.00848014	-0.139237
0.104537	0.200297	0.567967
0.3242	0.0218342	0.125539
0.41724	-0.0440091	0.743562
0.248217	0.0211059	-0.503487
0.419095	-0.0219784	0.293926
0.0774967	0.0251942	0.3012
0.0869411	0.112633	-0.517872
0.358816	-0.196841	-0.0583232
0.439375	-0.119024	-0.721712
0.117942	0.162803	0.402159
-0.200843	0.0273021	-0.747737
-0.0589144	0.00848014	0.604863
0.0286838	0.0188455	0.440106
-0.388766	-0.17273	0.844277
-0.409554	-0.142694	-0.245566
0.30149	0.116994	0.0237743
-0.0917796	0.11001	-0.670412
0.282114	0.158768	-0.387089
-0.22911	0.0243587	0.808943
-0.347939	0.0251942	-0.178538
0.208123	-0.200454	0.0464517
0.0133722	0.113986	0.559752
0.447181	0.162755	-0.460092
0.350031	0.0191851	0.472457
-0.551572	-0.00728115	-0.461157
0.374355	0.0225566	0.713475
0.110927	-0.200454	0.827819
-0.151313	0.111354	0.716976
0.380119	-0.170621	0.360085
-0.370757	0.0251942	-0.380838
0.382079	0.0251942	-0.421537
-0.0457599	-0.200454	0.104901
-0.185923	0.0194544	-0.377221
-0.0410915	0.023731	-0.658759
-0.11069	0.0171347	-0.0712734
0.317943	0.117011	0.0834494
0.278037	0.00848014	-0.729256
-0.151487	0.116217	0.307326
0.132265	0.0243625	0.809141
-0.28117	0.1371	-0.762798
-0.307285	0.115224	0.428075
-0.219332	0.115038	-0.331982
0.138777	0.00848014	-0.0859149
0.291291	0.116497	-0.136357
-0.0118624	0.115141	-0.320227
-0.41332	0.0901394	0.608163
0.27195	-0.200454	0.431022
-0.364281	0.110659	0.753842
0.437667	-0.0295964	0.116337
-0.330685	-0.200454	-0.305491
0.435672	0.00995273	0.894421
0.0988858	0.116677	-0.101882
0.0276351	0.175009	0.483053
-0.436492	-0.136915	0.677304
-0.139727	-0.183741	0.702098
-0.241584	-0.200454	0.36098
-0.324608	0.111685	-0.578449
-0.607711	-0.176797	-0.474527
0.303611	0.112198	-0.545633
-0.318913	0.018288	0.37595
-0.379888	-0.190034	-0.597141
-0.281759	0.056494	0.89304
-0.153518	-0.19342	-0.158612
-0.406101	0.142612	-0.676981
-0.0986256	0.0251942	-0.525388
0.25259	0.00848014	0.524305
0.193447	0.113772	0.467065
0.0504839	-0.183741	-0.582017
-0.0026561	0.104376	-0.753256
-0.289985	0.113988	0.537506
0.0947011	0.0251942	-0.528036
0.449681	0.00848014	-0.469225
0.332232	-0.200454	0.11382
-0.0742753	0.0251942	0.129031
0.43581	-0.097809	0.500478
-0.374591	-0.190599	-0.726917
-0.0449042	0.112435	0.420612
-0.370819	0.115606	-0.266673
-0.0261931	-0.183741	0.38702
0.494327	0.0774765	-0.780831
-0.418336	0.0881319	-0.0371378
0.240069	-0.200378	0.175684
-0.415347	0.0701483	0.826155
-0.0706768	-0.183741	-0.2811
0.235916	-0.183741	0.37225
0.422811	-0.0968007	-0.387347
0.155806	-0.195431	0.610267
0.379428	-0.174205	-0.497955
-0.308433	0.111052	0.73331
-0.358828	0.0172051	0.203698
0.0395617	0.113811	0.512143
-0.173805	0.164734	-0.574849
-0.082353	-0.183741	0.0233362
-0.414379	0.0888653	-0.459014
-0.0270169	0.213981	0.664042
-0.0828941	0.0636188	0.893978
-0.301366	0.113997	-0.419391
0.425569	0.0759116	-0.339144
-0.419431	-0.0328651	-0.67324
0.507945	0.0137369	-0.593709
0.509458	0.0158868	-0.716076
0.434875	0.00848014	0.234693
-0.441715	0.0241068	0.139176
-0.520319	0.0824996	-0.473435
0.375103	0.0176098	-0.163712
0.433175	-0.112053	0.712256
-0.304321	-0.183741	0.662594
-0.421131	0.148933	-0.500723
-0.247593	-0.200454	-0.234123
-0.404997	-0.154107	0.372842
-0.042228	0.0180504	-0.231249
-0.550629	-0.0912828	-0.508065
0.40675	0.0999355	-0.641724
0.424901	0.0817077	0.377871
0.059889	0.0251942	-0.0193432
-0.0877637	-0.183741	0.500659
0.0217461	0.103459	0.87283
-0.242422	-0.200454	0.15449
-0.0637447	0.11573	-0.252451
0.109979	-0.183741	0.473255
-0.423768	-0.154284	-0.0100588
0.487178	0.153764	-0.66755
0.181964	0.0176517	0.289088
0.547707	-0.0932448	-0.733598
-0.212153	-0.200454	-0.719384
0.358633	0.113516	0.576215
-0.351653	-0.199785	0.3295
0.0296365	0.116599	0.234038
-0.235219	0.00848014	-0.00996955
0.220081	0.0185045	-0.2835
-0.0197303	0.116792	-0.0797398
0.133266	-0.183741	0.0776701
0.339266	0.115965	-0.225386
-0.421288	0.0115311	-0.353237
0.0850042	0.117036	0.0480857
-0.260542	0.116378	-0.159069
-0.023465	-0.200454	-0.719784
-0.343793	0.0200461	0.543194
0.135123	0.0256533	-0.738758
-0.418829	-0.161567	0.16511
0.424959	0.0656332	0.587542
-0.301479	0.0251942	-0.728424
0.388253	0.0251524	-0.667894
-0.197366	0.0175039	0.260832
-0.392933	0.00848014	0.31202
0.34271	-0.198062	0.844277
-0.131789	0.0583814	-0.775928
-0.259928	0.0251942	-0.454679
-0.116363	-0.200454	-0.555356
0.206943	0.111051	-0.616026
0.294858	0.107108	0.864023
0.284861	0.180077	0.657568
0.14127	0.108605	-0.736513
0.249036	0.0169839	0.0154579
0.454382	0.0202416	-0.0706074
-0.0109546	0.0220655	0.682115
0.287667	0.0817196	-0.774011
0.0345201	0.017023	0.124411
0.00659817	0.0251942	0.255033
-0.456574	0.0186586	-0.160204
0.367114	0.0181102	-0.23813
-0.0932323	0.154597	-0.647371
0.0759632	-0.183741	0.745241
-0.0794267	0.117035	0.0471247
-0.278879	0.0221381	-0.569393
-0.314545	-0.200454	-0.63445
0.0936689	0.113746	-0.439887
-0.355087	0.0185492	-0.288647
-0.515515	0.0810171	-0.59326
0.18309	-0.200454	-0.188675
-0.00407272	0.110254	0.775061
0.154154	0.11687	0.164135
0.371439	0.00848014	0.809811
0.335909	-0.200307	0.70595
0.230323	-0.200454	-0.567937
0.141624	0.148141	-0.644976
-0.264933	0.113175	-0.483265
0.106829	-0.183741	0.700309
-0.18535	-0.200454	-0.334135
-0.35006	0.017984	0.894421
-0.0889366	-0.200454	0.831132
0.222915	0.183265	0.536913
0.193033	0.00848014	0.648219
-0.265596	0.0169704	0.0232081
-0.194226	0.206832	0.571858
-0.42493	-0.149575	-0.161394
-0.0181172	0.0297242	0.870943
0.0675562	-0.200454	0.326983
0.130134	0.0619914	-0.79902
0.424023	-0.143204	0.801014
0.311877	-0.183741	0.0163442
0.191132	0.159257	-0.44161
0.516772	0.0586424	-0.507758
0.422206	0.0843611	0.521311
0.122608	0.0239131	-0.668281
0.360486	0.139664	-0.560147
0.519139	-0.0597305	-0.595988
-0.536561	-0.0659563	-0.588014
-0.236634	0.191907	0.682551
-0.0129193	0.0251942	0.568816
-0.186529	0.0187747	-0.314591
-0.425002	-0.0834258	0.336545
-0.496138	0.0134947	-0.783835
-0.204079	-0.183741	0.0972231
-0.370352	0.0251942	-0.523874
-0.340566	0.0226959	-0.604639
0.00654018	0.111865	-0.566956
0.0733197	0.00848014	-0.175796
0.308341	0.110659	-0.636473
0.135214	0.00848014	0.894366
0.4083	0.106676	-0.0591071
-0.423144	-0.0674799	0.0280233
0.355158	-0.181253	0.276881
-0.152797	0.0201404	0.550946
0.12346	0.0185316	-0.286618
0.0681255	0.00848014	0.518105
0.3008	-0.200454	-0.649516
-0.232847	0.110379	-0.651144
-0.0637444	0.0251942	-0.138794
-0.0612924	0.111366	0.716219
0.194082	-0.183741	0.83981
0.44138	0.0224656	-0.577802
0.228244	-0.184911	0.275972
-0.142414	0.173263	0.409268
-0.2435	0.0214001	0.639636
0.489971	0.114494	-0.405661
0.0296385	0.133005	-0.393043
-0.121732	-0.200454	0.0640801
-0.433619	-0.12165	-0.580443
0.4229	0.0696194	0.707267
-0.0270876	0.116906	0.143606
-0.0931857	0.112706	-0.51322
-0.362979	0.0251942	-0.688333
-0.349675	0.156184	-0.713119
-0.39858	0.0268227	0.496458
0.43581	-0.0817376	0.348801
-0.197917	0.0251942	-0.162772
0.420952	-0.0464405	0.0277525
0.309354	0.116847	-0.0600998
0.395762	-0.163095	-0.62679
0.413164	-0.165527	0.0868741
-0.103197	0.0191287	0.467827
-0.441715	0.0477923	0.472777
-0.240777	0.111638	-0.581443
0.178238	0.0182403	0.37046
0.26807	0.0221551	-0.57048
-0.37417	-0.176048	-0.00430354
0.425367	0.0708439	-0.409984
-0.173705	0.116782	0.530945
-0.229779	0.0899717	0.887212
-0.0919413	0.0202772	-0.444826
0.306476	0.111409	0.713449
-0.221342	-0.183741	0.438927
0.0357399	0.0180779	0.351769
-0.415282	0.0888623	-0.390604
-0.176766	0.0232543	0.751195
0.0740884	0.110118	-0.664775
0.153554	0.0225592	-0.596281
-0.218896	-0.183741	0.753831
-0.412754	0.0802252	-0.736546
-0.438003	-0.0756333	-0.264043
0.033652	-0.200454	0.421611
-0.337774	-0.20045	-0.362498
-0.0612952	0.0174349	0.247618
0.0484604	0.057409	-0.79902
-0.419775	0.0848811	0.105236
-0.3621	-0.180549	0.101614
-0.22474	-0.183741	-0.563839
-0.389781	-0.165379	-0.314387
-0.151067	-0.200454	0.449274
0.182583	0.0234528	0.761578
0.333426	0.135529	0.430341
0.436934	-0.111344	0.0198285
-0.354982	0.0227247	0.723503
-0.24075	-0.200454	-0.0522399
0.0149505	-0.183741	0.724412
-0.29475	0.0468649	-0.771783
-0.352168	0.116527	0.247921
-0.19121	0.00848014	0.154295
-0.455099	0.00848014	-0.024952
0.152512	0.11191	0.681441
-0.264602	0.0251942	0.515938
0.221449	0.00848014	-0.165683
0.44138	-0.00398588	-0.667482
-0.385943	0.10945	-0.599764
-0.141187	0.00848014	-0.00984947
0.495246	-0.0815158	-0.798182
-0.537262	-0.146727	-0.704517
-0.267694	0.15639	0.620871
0.19824	-0.183741	-0.327734
0.31822	0.11259	0.637973
-0.0703111	0.116217	0.307416
0.130779	0.0251942	0.625006
-0.443572	0.0032703	0.81362
0.422811	-0.0858379	-0.17125
-0.15004	0.147555	-0.661927
-0.134349	0.139893	-0.401548
-0.422161	0.0685745	0.35876
0.418993	-0.117152	0.153677
-0.105672	0.116717	-0.0941243
0.314483	0.0171344	-0.0710606
0.190694	-0.200454	-0.0278424
0.0364157	0.0251942	-0.407747
-0.419431	-0.0371759	-0.593292
-0.368047	0.0251942	-0.10498
0.0710348	0.115946	-0.227521
-0.512785	-0.0262067	-0.690603
0.267037	0.116183	0.313926
0.184119	-0.200454	0.423454
0.422811	0.00519449	-0.280624
-0.151408	-0.200454	0.349548
0.0744619	-0.183741	-0.36985
-0.443572	0.024482	0.639015
-0.0260444	-0.200454	-0.238834
-0.245364	0.116967	0.109371
-0.0564571	-0.183741	-0.365612
0.373165	0.0250798	-0.729289
0.326351	0.113914	-0.426168
-0.259133	-0.183741	-0.312234
-0.180877	0.137041	0.368103
0.242489	0.0180732	0.351235
-0.348116	0.148983	-0.500279
0.205018	0.112313	0.65573
0.379039	0.123435	-0.795082
-0.290369	0.115074	-0.327939
0.400718	-0.164766	0.509979
0.43581	-0.0136275	0.483796
-0.191474	0.109213	-0.71206
-0.114997	-0.183741	-0.226658
0.422811	-0.00540538	-0.370161
0.412422	0.0304323	0.168147
-0.0950651	0.114976	-0.338944
-0.426859	0.00490791	0.769389
-0.417229	-0.158514	-0.510311
0.427858	0.0680108	-0.191097
0.021381	0.115657	0.378317
0.182671	0.0170194	0.122327
0.346421	-0.199984	-0.20515
0.218593	0.0251942	-0.418499
0.306146	0.115358	-0.29528
-0.130668	0.22189	0.575024
0.314317	-0.183741	0.36166
0.221342	0.114664	-0.364581
0.372222	-0.175011	0.420241
-0.421288	-0.0614874	-0.226109
-0.244273	0.00848014	-0.0883282
0.0934217	-0.183741	-0.287223
0.376487	0.113645	-0.448265
-0.320868	-0.200454	0.785372
0.193644	0.112972	-0.496225
-0.00994731	0.0150204	-0.777059
-0.0748952	-0.191214	0.175684
0.255658	0.114224	0.527919
-0.317179	-0.200454	0.492763
0.422811	-0.0394779	-0.242068
-0.161752	0.116664	0.221715
0.206088	0.00848014	-0.0253252
-0.0942604	0.111548	-0.587193
0.239081	-0.183741	0.615602
-0.48085	0.0562896	-0.399616
-0.438873	0.0126502	-0.777059
0.212998	0.123766	0.378336
0.0309831	-0.200454	-0.163595
0.0752017	-0.200454	0.138957
0.351769	0.1148	-0.353391
-0.164677	0.11699	0.0217666
0.564414	-0.0440979	-0.441194
-0.383681	0.0198508	0.407644
0.263538	-0.183741	0.500586
0.381029	0.155183	-0.716386
-0.348507	0.161244	-0.563035
0.149118	0.116473	-0.140869
0.38409	0.0614109	0.892977
0.228629	0.109298	0.824941
0.319338	0.0209097	-0.49096
-0.150114	0.0156496	0.79413
0.12797	0.0192095	0.474458
0.11624	0.114414	0.502421
-0.1545	0.128402	0.653264
0.358757	0.0178228	0.321799
0.407761	-0.167453	0.672995
-0.0664715	0.0251942	0.181985
0.0119606	0.115349	0.624208
0.0672313	-0.200454	0.0159603
0.0678376	0.0182938	-0.259258
0.147546	-0.200454	-0.557969
-0.123285	0.117737	0.587334
0.338505	0.180451	0.681503
-0.422236	0.146049	-0.41914
0.367046	-0.196409	-0.341897
0.312881	0.0266705	-0.798724
-0.43986	-0.0440919	0.0962889
0.204131	0.00848014	0.583052
-0.085403	-0.200454	-0.0504082
-0.121543	0.0247085	0.326117
-0.0891331	0.108353	-0.738425
0.326904	0.0216051	0.652727
0.149139	0.183222	0.701261
0.0551935	0.164506	0.406144
-0.417558	0.0646578	-0.599318
0.45067	0.0183945	0.636405
-0.148329	0.0183918	0.387894
-0.12679	0.11562	-0.265182
-0.0209468	0.159495	-0.460667
-0.249588	-0.200454	-0.658494
-0.442348	-0.115102	0.610367
0.433537	0.0502666	-0.525343
-0.441096	-0.10963	0.483569
0.28195	0.0251942	0.184315
0.431382	0.0243284	-0.777059
-0.224158	0.116421	0.268243
-0.23849	0.0169816	0.100576
-0.143218	0.115044	0.44873
-0.175399	0.127325	-0.791071
-0.355948	0.116267	-0.180529
-0.10156	0.0196018	-0.389331
0.185906	0.0169098	0.059359
-0.273369	0.0177202	-0.184834
0.0562404	0.222568	0.641565
0.426718	-0.14527	-0.054105
-0.324384	0.116953	0.000102918
0.273535	0.0649495	0.894153
0.164268	-0.200454	-0.658876
-0.0450763	0.00848014	-0.0578257
0.300798	-0.183741	0.746227
0.00350795	0.142396	-0.709292
-0.0714938	-0.183741	0.665492
-0.00391058	-0.200454	0.013825
-0.283895	0.157227	-0.433779
-0.476188	0.101295	-0.714312
-0.443572	-0.0257532	0.823954
-0.0893842	-0.183741	0.349287
-0.015033	0.133243	-0.794572
0.0939402	0.112938	0.380931
0.399417	-0.157971	-0.242276
-0.319043	-0.200454	-0.497573
0.116087	0.111557	-0.586592
-0.438003	-0.0111099	-0.27757
0.417492	-0.0193212	0.844277
0.343095	0.109417	0.818753
-0.423862	-0.122124	0.745173
0.288839	-0.192546	-0.726917
-0.0660367	0.180747	0.428297
0.283535	0.11604	-0.216845
-0.222417	0.157836	-0.453707
0.236763	-0.200454	0.754772
-0.441715	-0.0854902	0.278003
-0.294276	0.152567	0.49649
-0.474522	0.114234	-0.524811
-0.151552	-0.200454	0.0129824
-0.133966	0.17432	0.703235
-0.114349	-0.200454	-0.626221
-0.239563	0.11851	0.578156
-0.0422375	0.11692	-0.0186443
0.190893	-0.19927	-0.492909
0.342116	0.116387	-0.157526
-0.0507635	0.0220663	-0.564806
-0.279269	-0.183741	0.0843662
0.098762	0.116639	0.226461
-0.422913	0.0652988	-0.119834
0.419508	-0.128493	-0.495561
0.403121	0.110579	0.111577
0.117845	0.017527	0.265244
-0.360013	0.115571	0.388133
0.29478	-0.200454	-0.245165
-0.00489098	-0.183741	-0.318359
-0.151319	-0.183741	-0.711557
0.417821	0.142489	-0.549793
0.139087	0.116907	-0.0261573
0.242992	0.116676	-0.102016
0.258074	-0.200454	0.00737786
0.318332	0.00848014	0.539073
-0.534582	0.0151446	-0.593657
-0.596104	-0.10524	-0.62259
-0.0313079	0.0185688	-0.290892
-0.164101	0.116843	-0.0622726
0.0927058	0.020314	-0.447844
-0.420965	-0.104553	-0.359743
0.385291	0.0177834	0.103288
-0.0855082	0.00848014	-0.7136
-0.0315779	0.00848014	-0.477852
-0.153381	-0.200454	0.764416
-0.0556821	-0.192425	0.610267
-0.303678	0.0219927	0.677471
-0.13503	0.0183767	-0.26879
0.489035	0.12033	-0.493186
0.0232746	0.0247383	0.828792
0.0562399	-0.19514	-0.0583232
-0.372286	0.0170366	0.132249
0.0944703	0.114989	-0.337717
0.270419	0.111636	-0.581613
-0.178303	0.116989	0.0962484
-0.0488442	0.113623	0.567397
-0.0792085	0.0170124	-0.000987037
-0.179033	0.00848014	-0.688475
-0.292731	0.109787	0.79943
0.42503	0.0664211	-0.47231
0.354689	0.110096	-0.665924
-0.443572	-0.0783191	0.674205
0.0479513	0.201416	0.554756
0.509738	0.0504091	-0.422543
-0.437565	-0.133756	0.791468
-0.397869	0.104299	0.688365
0.295791	-0.183741	-0.308178
-0.198013	-0.200454	0.319447
-0.443572	0.0381374	0.742681
0.195676	0.10387	-0.799013
-0.0392336	0.116469	-0.141681
0.419421	-0.160288	-0.325724
0.290139	-0.200454	-0.595689
0.238778	0.164231	0.457452
0.0181826	0.153186	-0.615146
0.133229	-0.183741	0.362671
-0.215368	-0.200454	-0.18212
0.174214	0.115464	-0.283071
0.240467	0.0990116	-0.798399
0.394174	0.00848014	0.653479
-0.294041	-0.183741	0.361055
-0.0177736	0.0251942	-0.348428
0.287769	0.018849	0.440508
-0.0713599	-0.183741	-0.503731
-0.328857	0.0201596	-0.435158
0.440231	0.0244549	-0.00817842
-0.438396	-0.116301	0.0402811
0.0457212	0.109505	0.814109
0.341061	0.1158	0.361816
0.280501	0.137192	-0.487308
-0.411626	-0.173338	0.689065
0.225642	0.116653	0.223733
-0.299122	0.115792	0.36275
0.266462	0.0251942	-0.151342
-0.0275953	-0.183741	0.692532
-0.41363	0.0828915	0.760307
-0.334832	-0.183741	0.731785
-0.255774	0.0180826	0.352322
-0.310897	0.116976	0.103264
0.217028	0.00848014	0.183745
-0.176195	0.116896	0.149686
-0.214368	-0.183741	0.678225
-0.00466543	-0.200454	-0.555216
0.277612	-0.200454	0.670247
0.2535	0.117001	0.0893072
0.0933887	-0.200454	-0.225745
0.17139	0.10944	0.81757
-0.186892	-0.200454	0.397647
-0.436147	-0.024427	-0.509137
-0.509558	-0.0339133	-0.514849
0.117861	-0.183741	-0.718924
-0.0256631	-0.200454	0.769338
-0.40301	0.0318512	0.599317
-0.0450162	0.0251942	0.49501
-0.0252394	0.112996	0.471297
-0.00536917	0.01704	-0.0168638
-0.330319	0.0208486	0.604421
-0.257367	0.137692	-0.37489
0.083877	0.00848014	-0.103603
0.0232134	0.113232	0.452993
-0.490259	0.0457565	-0.728338
0.441559	0.105044	-0.791582
0.0628027	0.0619289	0.893756
-0.103583	0.159761	-0.553737
-0.26748	-0.183741	0.417519
0.474335	0.122809	-0.623595
-0.018529	0.175718	0.708823
0.184835	0.11696	0.113134
0.437667	0.0034763	0.055989
0.418075	0.037451	-0.125399
0.0876493	0.113557	0.572845
-0.418447	-0.12158	-0.300888
0.049631	0.0235479	-0.64919
-0.0840623	0.0169102	0.0595651
0.130589	0.1355	-0.777408
0.424579	-0.100931	-0.662414
-0.276935	-0.200454	0.62074
0.29821	0.0251942	0.325324
-0.441715	0.0439752	0.294043
0.330998	0.155261	-0.624593
-0.193296	0.0251942	-0.513625
-0.309858	0.00848014	0.219371
0.286483	0.00848014	0.87959
-0.205469	0.0282811	0.86746
-0.28516	0.107893	0.859288
-0.443572	-0.0185952	0.699107
-0.579832	-0.114037	-0.464376
-0.0668044	0.072372	-0.77635
-0.421288	-0.0171077	-0.181987
0.424665	-0.00627991	-0.528617
0.16114	-0.200454	0.664706
0.0504844	0.141423	-0.502753
-0.292658	0.0251942	0.842983
0.0658003	0.0221955	0.69042
-0.369162	-0.190708	0.275972
0.398936	0.111468	-0.196542
-0.425002	-0.0569926	0.365881
0.44138	0.0363127	-0.638634
0.42485	0.0485582	0.0425269
0.0590312	-0.20031	0.275972
0.373775	0.0193366	-0.367549
0.331446	0.0251942	-0.694022
0.43581	-0.0710254	0.438837
-0.269675	0.11659	0.235812
-0.406966	0.00848014	-0.133691
0.0082774	0.0244058	-0.694051
-0.0696488	0.0232555	0.751256
0.331044	0.116853	0.17393
0.305039	0.0235248	0.765338
-0.388927	0.133551	-0.791797
-0.254768	0.00848014	-0.399385
0.13616	0.113239	0.425755
0.0611776	0.0169097	0.0593059
0.252093	0.0231821	-0.630064
0.18076	0.0492847	-0.772785
0.132244	-0.200454	0.0245668
-0.123923	0.110302	0.772488
-0.181209	0.0222405	0.693293
0.119015	0.214032	0.657141
0.437293	0.0502666	-0.686057
-0.269078	0.116756	-0.0866532
0.0937964	0.174537	0.506141
0.0378366	0.116699	-0.0976996
-0.419383	0.00848014	0.845771
0.200886	0.111355	0.716877
0.43581	-0.0736299	0.307027
-0.436147	0.0051548	-0.630224
-0.128675	0.00848014	0.178198
0.137766	0.0210596	-0.500529
-0.439133	-0.11125	0.165961
-0.43986	0.0126466	0.0658834
-0.115653	0.0175568	0.270935
-0.00725645	0.111659	0.697477
-0.259807	-0.200454	0.014712
-0.419943	0.0707724	0.543505
0.413097	0.0930736	0.761499
-0.445315	0.129008	-0.7566
0.0651686	-0.200454	0.807044
-0.16423	-0.200454	-0.577891
-0.274056	0.155212	-0.59136
-0.269015	0.115503	-0.278661
-0.436197	-0.118021	-0.21281
0.238415	-0.200454	-0.221514
0.0688384	0.0251942	0.243977
0.161396	0.140596	-0.588134
0.40025	0.00848014	-0.053868
0.56495	0.0189302	-0.655929
-0.441715	-0.00696272	0.366236
0.318963	0.0174079	-0.1251
0.43581	0.0363799	0.283041
-0.0340949	0.15343	-0.648524
-0.248113	0.110609	0.756493
-0.103027	-0.183741	0.770207
0.167939	0.189597	0.553798
0.248285	0.11	-0.670942
-0.436147	-0.0189579	-0.719592
-0.422526	-0.158921	0.443773
-0.419431	0.0472551	-0.515291
-0.39491	0.0231242	-0.213847
0.173258	0.0251942	-0.427176
0.421641	0.0815797	0.637473
-0.367455	-0.197014	0.386618
0.0363192	0.0205982	-0.471065
-0.401194	-0.17923	-0.0553314
0.174318	0.0251719	0.851465
0.125615	0.0175079	-0.144227
0.201918	-0.200454	0.119756
0.299362	0.113611	0.568472
-0.140445	0.0191889	-0.355406
-0.380085	-0.170869	-0.646788
0.325515	-0.194608	-0.158612
-0.265444	-0.18995	0.509979
0.0529778	-0.183741	-0.524202
0.332349	0.110524	0.76091
0.433954	-0.0166231	0.701584
0.21877	0.0253098	-0.736151
0.43581	-0.00317586	0.331555
0.41724	-0.0922878	0.778666
0.0918716	0.111222	0.724468
-0.0106733	-0.183741	0.0656878
0.511869	0.0666543	-0.619801
-0.420033	0.0557796	-0.339262
-0.130611	0.0251942	0.603355
-0.272564	0.161972	-0.696917
0.244318	0.115225	0.427953
-0.0717867	0.00848014	0.867869
0.438831	-0.110749	-0.302459
0.146522	0.112491	-0.526931
0.43541	0.165603	-0.643128
0.344093	-0.200258	-0.636254
-0.520727	-0.0732642	-0.450389
-0.438098	0.0502666	0.000676176
-0.31379	0.0193883	-0.371795
0.153667	-0.200454	0.807032
-0.128291	0.00848014	-0.129633
-0.557775	-0.10845	-0.663094
0.212765	0.110266	0.774358
0.287012	-0.200454	0.169773
0.229146	-0.183741	-0.391778
-0.245236	0.0176759	0.293716
-0.134106	0.109358	-0.704436
-0.366094	-0.197295	0.475734
0.3179	-0.200454	-0.559012
-0.368884	0.114	0.536497
-0.400025	-0.178625	-0.198678
-0.41499	0.0251942	-0.0643879
0.159322	0.205852	0.610892
-0.0436299	-0.183741	0.464053
-0.0412362	-0.183741	0.330291
0.23407	0.0251942	0.138685
-0.421543	0.053636	0.167807
0.356423	-0.18137	-0.00540293
0.00446255	-0.183741	-0.658123
-0.307049	-0.200454	-0.253377
-0.334441	0.114941	0.45917
0.0886239	-0.183741	-0.626107
-0.148598	-0.200454	0.291464
-0.408932	-0.168618	-0.553416
0.407361	-0.175155	-0.550003
0.324273	-0.200454	0.437096
0.181293	0.177552	0.500128
-0.413164	0.15941	-0.555149
0.45624	0.0211613	-0.421573
0.271713	0.00848014	0.565288
0.151188	-0.183741	0.498163
-0.262869	0.108933	-0.726661
-0.22492	0.139532	-0.761365
0.590199	-0.0277386	-0.621
-0.265366	0.0173648	0.234229
0.43581	-0.0329394	0.394823
0.360581	0.0171084	0.173493
-0.502475	0.00103313	-0.432432
-0.216698	0.00848014	-0.473948
-0.0605954	-0.200454	-0.549405
-0.33821	0.0177737	0.312421
0.00342301	0.0231728	-0.629576
0.434388	-0.116097	0.377029
-0.381087	-0.190358	-0.25066
0.0772462	0.0244857	0.815584
-0.204323	0.150457	0.651505
-0.206351	0.0251942	0.597299
0.0479956	-0.183741	-0.0183645
-0.099862	-0.183741	0.127266
0.137197	0.00848014	0.156388
0.405092	0.107215	-0.299118
0.345122	0.0169325	0.0724518
0.058714	-0.183741	0.673496
-0.258176	-0.183741	-0.699119
0.333935	0.108879	-0.729473
0.122171	-0.183741	0.170894
0.187286	0.017351	-0.114218
0.106744	0.0877985	-0.771493
0.0710756	0.116861	-0.0520366
0.358111	0.117013	0.0347841
0.577803	-0.00336529	-0.478139
-0.359412	0.151807	-0.649965
0.0231907	-0.200454	-0.722818
0.260424	0.133803	-0.75046
-0.412692	0.00848014	-0.398462
0.287383	-0.200454	0.0510012
-0.45052	0.00848014	0.492277
0.100296	-0.183741	-0.56333
0.0727137	-0.183741	-0.203911
0.499364	0.0738059	-0.368996
0.0257734	0.115684	-0.257763
0.488949	0.101652	-0.691215
-0.0915166	-0.200454	-0.328475
-0.0957439	0.116916	0.138174
-0.0211589	0.0722341	-0.79902
0.201023	0.0251942	-0.474074
0.2724	0.0251942	-0.032824
-0.105235	0.111863	0.684447
-0.258229	0.00848014	-0.748674
0.36892	-0.175725	0.644651
-0.423671	-0.159986	0.633591
0.146526	-0.183741	0.414129
-0.259865	0.0242161	-0.684128
0.19447	0.0180913	-0.235955
-0.154897	0.0215831	-0.533961
-0.207651	0.191624	0.521918
-0.385861	-0.18892	0.0600293
-0.0475134	0.140017	-0.699911
-0.228121	0.115636	0.380608
-0.023919	0.116099	0.327329
-0.0696526	0.0216538	0.655829
0.233414	0.159471	-0.410129
0.144683	0.00857858	-0.543054
-0.312399	0.00848014	0.508073
0.274071	0.0191837	-0.354979
-0.0502235	0.127493	-0.365578
-0.0899448	0.112618	0.448894
-0.319398	0.0251942	0.170386
0.0884787	0.00848014	0.644014
0.226832	0.132505	-0.576091
0.286752	0.169266	0.605364
-0.298776	0.116227	0.305434
-0.391542	0.0272329	-0.619653
-0.0128003	0.116804	0.194883
0.331163	0.00848014	-0.752216
0.120641	0.149585	-0.411326
0.415585	0.137082	-0.494272
0.420952	-0.0326616	-0.0456798
0.0394349	0.0251942	0.558013
-0.419431	-0.0902275	-0.674107
0.43253	-0.0510119	-0.798545
0.433954	-0.0792078	0.673262
-0.197248	0.111274	-0.604414
-0.345844	0.1119	0.682072
-0.303726	0.0170342	-0.013469
0.19167	0.0173629	0.233856
0.399668	0.0250621	0.52892
-0.265152	0.182216	0.574823
-0.102275	0.0228933	-0.614958
0.415761	0.0251942	0.46228
0.308569	0.145166	0.486807
-0.435654	-0.0717979	-0.726917
-0.0151399	0.0251942	-0.151545
0.454382	0.0172615	-0.153394
0.419095	0.0337128	0.356942
-0.129882	0.0251942	-0.697347
-0.201556	0.207508	0.623994
-0.157644	-0.183741	0.657141
-0.423144	0.00112849	0.0200369
-0.0308984	-0.183741	0.158154
-0.194272	-0.200454	-0.385775
0.483909	0.113491	-0.743532
-0.143981	-0.183741	-0.317896
-0.43986	-0.0428102	-0.0126629
-0.144092	0.110776	-0.630366
-0.587434	-0.0713849	-0.482463
-0.0281619	0.103134	0.873573
-0.0403351	-0.183741	0.811401
0.423972	0.0874532	0.0904937
0.102761	0.155254	-0.679215
0.433954	-0.0104584	0.77038
-0.39964	0.108725	0.274272
-0.378158	0.0211971	-0.472404
0.0222536	-0.200454	-0.214881
0.432285	0.00326087	-0.726917
0.0900954	0.0234849	0.763252
-0.185189	0.0251942	0.20836
0.0454908	0.142552	-0.553519
0.230538	0.0193288	0.48426
-0.227123	0.0201351	0.550513
0.424665	-0.0498017	-0.495833
0.129032	-0.196975	0.275972
0.335773	0.0251942	-0.0252223
0.168371	0.0195284	0.500661
0.230675	-0.183741	-0.178773
-0.375702	0.108748	-0.721053
-0.405676	0.0295519	0.22591
0.411421	0.00848014	-0.505282
0.323537	0.0217249	-0.543011
-0.557462	-0.174193	-0.464576
-0.351925	-0.199889	0.661317
0.12718	-0.183741	-0.341532
-0.0126848	0.0234098	0.759325
-0.409075	-0.175574	0.793549
-0.505883	-0.0464701	-0.778051
-0.163843	-0.200133	0.509979
0.32694	0.0251942	-0.435781
0.250405	0.116925	-0.0158308
0.284489	0.116526	0.248127
0.287651	0.0131452	-0.676771
-0.340558	0.0250486	0.845016
-0.294355	0.116212	-0.190906
-0.426859	-0.0430309	0.779497
-0.330106	0.0174045	-0.124444
0.233193	0.0234083	0.759246
-0.0529553	0.00848014	-0.51882
-0.0569991	0.0197274	-0.399653
-0.155743	-0.183741	0.111903
-0.210735	0.138514	-0.386118
-0.512306	-0.131474	-0.525133
0.452526	0.00936369	0.163955
0.420952	-0.0749213	-0.0101822
0.428118	0.0713251	-0.0291981
0.406599	0.0365387	0.855438
0.108032	0.0180304	-0.228949
0.266207	-0.183741	-0.345135
-0.395709	0.110419	-0.223481
-0.0263885	0.0244045	0.811336
-0.0133617	0.00848014	0.150059
-0.184963	0.0251942	-0.0560867
-0.129945	0.00848014	0.508341
-0.201623	0.115447	-0.285003
0.185007	-0.200454	-0.601956
-0.222395	0.114056	0.531894
0.42353	0.0502666	0.416509
0.433954	0.0454559	0.668133
0.14294	0.115658	0.37819
0.0177159	0.147693	-0.759937
-0.311917	0.113355	0.589175
-0.10318	0.116422	0.268119
-0.232661	0.0249472	-0.208756
-0.39776	0.110574	0.141646
-0.426693	-0.118617	-0.492909
-0.209647	0.116927	-0.0146813
0.0964697	0.0171119	-0.05816
-0.34939	0.109753	0.801148
0.256988	0.116296	-0.174946
0.403959	-0.147786	0.463489
-0.363184	-0.178921	-0.54131
-0.274238	-0.200454	0.31885
0.163279	0.11672	-0.0934238
0.186262	0.0176145	-0.164594
0.419095	-0.0537734	0.478002
-0.344806	0.0175005	0.260152
0.0832267	0.151166	0.367733
0.254147	0.111175	0.72693
0.0298203	0.11696	0.113032
0.146768	0.0546559	0.892371
0.348697	-0.199714	0.160318
0.320762	0.024991	0.842008
-0.330887	-0.200454	-0.00282986
0.270625	-0.200454	0.336503
0.287385	0.159085	0.702031
-0.0218141	0.115633	0.38102
0.052598	-0.200454	-0.329062
0.552701	0.0432208	-0.445424
0.0158283	0.00848014	0.297425
0.446093	0.160171	-0.695969
0.0885694	0.0187852	0.433165
-0.0300622	0.0185766	0.409153
0.0880447	0.0243652	-0.691923
-0.34193	-0.183741	0.834661
-0.324009	0.146303	-0.613156
-0.37005	0.113082	0.606578
-0.332344	0.107952	-0.741477
0.318979	0.0251942	0.272078
-0.0856392	0.155613	0.368681
0.236639	0.0251942	0.643614
0.438309	-0.0403002	-0.392621
0.215672	0.0532465	-0.798962
0.00944421	0.00848014	-0.732744
0.538434	-0.0507545	-0.711781
0.266216	0.0186374	-0.298799
0.346249	-0.182655	0.798347
-0.501383	0.117152	-0.622433
-0.189514	0.187532	0.693163
-0.016388	0.111098	-0.61357
-0.0369584	0.114223	0.518191
-0.164077	0.018876	0.443605
-0.223572	0.157916	-0.650185
-0.464201	0.0800138	-0.358007
0.353709	0.116793	-0.0795165
-0.171341	0.12939	-0.35966
0.0811155	0.116368	-0.161125
-0.0666787	0.113335	-0.47305
-0.157343	0.0251942	0.286632
0.353803	-0.18226	-0.386052
0.221066	0.0184485	0.394414
0.213071	0.116144	0.321419
0.0960533	0.115589	-0.268637
-0.382911	-0.190374	0.14387
0.170212	0.139816	-0.712762
-0.410205	0.100256	-0.0893652
0.346763	0.159868	-0.677739
-0.130002	0.113118	-0.486882
0.420952	-0.0692063	0.150913
-0.421288	-0.0707057	-0.392484
-0.269073	0.00848014	-0.524492
-0.340521	0.0169604	0.0288901
0.0286293	-0.200454	-0.621357
0.426861	0.0647997	-0.29351
-0.396529	0.110573	-0.147846
0.197402	-0.200454	0.633552
0.19454	-0.192555	0.175684
0.500054	0.15472	-0.461874
0.0118972	0.00848014	0.531547
-0.0112527	0.116239	-0.185855
-0.426859	-0.0091202	0.661915
-0.219089	0.112967	-0.496552
-0.106377	0.115991	-0.222438
0.113429	0.0230291	-0.622062
0.314889	-0.200454	-0.0216201
0.309743	-0.190765	0.509979
-0.3038	0.149153	-0.517721
0.0175688	-0.200454	0.768906
0.265712	0.114456	-0.381665
0.421389	-0.160124	-0.666727
-0.0612925	0.112294	-0.539555
-0.085406	0.219523	0.560776
-0.0126834	0.00848014	0.615791
0.388566	0.0185827	0.231656
0.38622	0.114878	-0.243577
-0.42215	-0.112299	-0.0321333
0.161187	0.0254847	-0.79902
-0.160466	0.0179032	-0.214313
-0.378224	0.017669	-0.0583198
-0.0369029	0.0257634	-0.739594
-0.0500438	-0.183741	0.285742
0.291399	0.11514	0.437773
0.0797482	0.157693	-0.450453
0.296194	0.154531	0.546134
0.424665	-0.0325219	-0.555058
0.0930299	0.216862	0.612474
0.378225	0.108258	0.856509
-0.197239	0.116157	0.318961
0.102784	0.0276451	0.865925
0.237388	-0.183741	-0.528874
0.0191242	0.173185	0.436689
-0.0640584	-0.183741	-0.683829
0.431491	-0.13425	0.0600482
0.189746	-0.183741	0.736201
0.206823	0.0251942	0.817492
0.0824492	-0.193858	0.509979
0.221136	0.148051	-0.666182
-0.0795531	-0.200454	0.438814
0.145348	0.0179493	0.336966
0.217569	-0.183741	0.321613
-0.288924	-0.183741	-0.219638
-0.207594	-0.200454	-0.670621
0.388195	0.111347	-0.522212
0.41678	-0.118944	0.332103
-0.196458	0.112214	0.662005
0.179802	-0.183741	0.358805
-0.354473	0.113719	-0.442216
-0.395987	0.111359	0.00225892
-0.423144	-0.00849495	0.172879
-0.574017	-0.172077	-0.508101
-0.141465	0.0201073	-0.430862
-0.233678	0.116183	-0.196582
0.264172	-0.183741	-0.628854
-0.214748	0.00848014	-0.12192
0.00698327	0.116892	-0.0342817
-0.317023	0.115405	-0.289947
-0.423144	-0.00927113	-0.0489907
-0.0634182	0.116847	-0.059843
-0.376723	0.109813	-0.65898
0.32175	0.0181905	-0.247371
-0.496094	0.000102146	-0.723534
-0.116092	-0.200454	-0.284994
0.332561	0.0688265	0.894178
-0.438003	-0.00226392	-0.222429
0.246014	0.0204298	-0.45735
0.168498	0.110564	-0.641484
0.0793606	-0.198931	-0.726917
0.420031	-0.159374	-0.279675
-0.186068	0.0608424	0.893612
0.303543	0.125575	-0.764368
-0.316119	0.155529	-0.681599
0.203931	0.114456	0.510193
0.255937	0.0181476	-0.24244
0.108436	0.116841	0.181542
-0.131167	0.11617	-0.796498
-0.423144	-0.0744989	0.124516
0.424665	-0.0369729	-0.636946
0.548043	0.00308434	-0.616295
-0.5004	0.043257	-0.568629
-0.271311	-0.200454	0.748977
0.210087	0.0251942	0.319576
0.422418	0.0625948	-0.60533
0.259501	0.112392	-0.533311
-0.0959245	0.0251942	0.217057
0.42217	0.0864638	0.45792
-0.404436	0.149393	-0.612347
-0.460401	0.118324	-0.40863
-0.15994	0.022356	-0.777059
-0.513157	-0.096283	-0.55593
0.427966	0.0628786	0.21146
0.0762972	0.018326	0.380314
0.0797392	0.0170114	0.117763
0.415302	0.0347236	-0.219725
-0.262886	0.00848014	-0.0494705
0.378654	0.0234016	0.758899
0.156253	0.0219145	0.672476
0.0473376	0.0178811	-0.208756
-0.235564	-0.200454	0.477289
0.386944	0.113144	0.521473
-0.418498	0.0881686	0.0598564
0.13295	0.11705	0.0559296
0.412881	0.0441746	-0.740611
-0.0917925	0.154223	-0.602399
-0.184851	-0.200454	-0.536522
-0.225563	-0.183741	-0.0098713
-0.187827	0.112101	-0.551877
-0.0493409	0.11021	0.777343
0.411967	-0.128829	0.84214
-0.326453	-0.200454	0.287097
0.402085	0.0269946	0.592666
-0.239322	0.114048	-0.415146
0.480028	0.0366305	-0.786906
0.519333	-0.0338973	-0.551555
-0.321193	-0.200454	0.0853955
-0.14294	0.114447	0.499721
-0.221792	-0.200454	-0.609938
-0.0586945	-0.183741	-0.212645
0.015865	0.155581	-0.660075
0.238701	0.00848014	-0.380698
0.201883	0.155447	-0.610605
-0.136712	0.106038	-0.749245
0.255615	0.0169198	0.0651354
0.124053	-0.183741	-0.200705
-0.226674	0.0169312	0.04573
0.371268	-0.193084	0.762508
0.290423	0.109405	0.819366
-0.485302	0.0729843	-0.510692
-0.273417	-0.183741	0.138967
-0.379176	0.112552	-0.477503
0.180323	0.17119	0.449591
-0.426641	-0.146105	-0.337462
0.205717	0.146017	-0.523916
-0.153689	0.184977	0.450963
0.081999	0.00848014	-0.489641
0.17463	0.017108	-0.0559107
-0.282096	0.111372	-0.598473
-0.280064	-0.200454	-0.0285525
-0.338215	-0.18355	-0.668363
-0.333199	0.109606	-0.691537
-0.0942981	0.10747	0.862505
0.175503	0.151973	-0.395978
0.0273535	0.0217082	0.659305
-0.206401	0.117018	0.0374157
0.0270034	0.112104	0.66901
0.363232	0.0204812	-0.461579
0.0831494	0.114273	-0.396645
-0.41111	0.0462405	0.785388
-0.00729754	0.113876	-0.429286
-0.0459381	0.229627	0.627029
-0.243119	0.112332	-0.537097
-0.392265	0.145123	-0.386396
0.386591	0.159776	-0.467123
0.117588	0.112986	0.612683
-0.0917885	-0.183741	-0.173659
0.0320221	0.111088	-0.614095
0.245099	0.113103	-0.487845
0.0837487	0.0171124	0.175793
-0.527924	-0.103697	-0.69984
-0.477994	0.112049	-0.671433
0.361246	0.114245	-0.399
-0.290758	0.194352	0.674569
-0.326381	-0.200454	-0.570384
0.0111931	0.195675	0.530901
-0.112058	-0.200454	0.671973
0.293788	0.109847	-0.678956
0.45067	0.0179138	0.492269
-0.303352	-0.183741	-0.378438
-0.123765	0.0206659	-0.475395
0.422454	-0.152971	0.021161
-0.0311435	0.00848014	-0.189658
0.388126	0.111841	0.608873
-0.286805	0.0199459	-0.4176
-0.194305	0.157086	0.404872
-0.121794	0.00848014	0.826999
-0.346385	0.0190322	-0.342536
-0.0658955	-0.191192	-0.726917
-0.419942	0.0493701	0.0798337
0.325843	0.00848014	-0.188953
0.496469	0.0467506	-0.544478
-0.0663706	-0.200454	0.384358
-0.436147	-0.0501077	-0.63686
-0.218458	0.0251942	-0.408029
0.335976	0.00848014	-0.386244
-0.403971	0.0939856	0.860757
-0.567274	-0.0329864	-0.492566
-0.528599	0.0179574	-0.658205
0.0594552	0.109334	-0.705736
-0.227922	-0.183741	-0.269119
-0.244402	0.00848014	0.481265
0.100754	-0.200454	0.650894
-0.39569	0.0251942	-0.16918
0.270529	-0.19817	-0.158612
-0.0820896	0.116527	-0.130563
0.151492	-0.183741	-0.164072
-0.51658	-0.0411458	-0.421566
0.342135	0.116927	0.132051
0.0922673	-0.200454	0.0991438
-0.0837025	0.0238761	-0.666349
9.48912e-005	0.116564	-0.123626
0.434306	-0.136895	-0.541674
-0.249043	0.109096	0.835552
-0.182872	0.0170146	-0.00225958
0.0689861	0.117003	0.0881749
0.422811	-0.0783054	-0.22325
-0.4014	0.0280737	-0.311953
0.416447	-0.13204	-0.214367
-0.432354	0.0201673	-0.701844
0.150799	0.0990414	-0.798905
-0.421152	0.0630046	0.438066
0.15005	0.116981	0.0163732
-0.276272	0.00848014	0.879164
0.229066	-0.183741	0.0907726
-0.419244	-0.102479	-0.632847
-0.0715005	0.022475	0.708268
-0.425002	0.0283598	0.343709
-0.0391883	0.139064	-0.493878
0.248486	0.0251942	0.890728
-0.150595	-0.200454	-0.209337
0.225762	0.116913	0.140139
0.43593	-0.126647	-0.170268
0.406767	-0.170706	0.395221
-0.0113376	-0.183741	-0.275462
-0.121728	0.116451	0.545209
0.375061	-0.174527	0.0694526
-0.453224	0.145386	-0.632367
0.337921	0.111253	-0.605511
-0.122109	0.116998	0.0264286
-0.13808	0.00848014	0.873788
0.115058	-0.200454	0.75065
-0.0656142	0.0251942	0.291344
0.428648	-0.131687	0.655573
0.382182	0.115503	0.350293
0.53139	-0.0174716	-0.436455
0.110651	-0.183741	0.312137
0.159992	0.113056	0.608219
-0.39049	0.111206	-0.360623
0.253287	0.00848014	0.311134
0.0208383	0.0404535	0.884498
0.433451	0.135078	-0.613453
0.153777	-0.200454	0.452626
-0.243149	-0.200454	0.654051
0.304345	-0.200454	-0.355441
0.358514	0.0395894	-0.766474
0.268346	0.111825	0.686862
0.44138	-0.0920398	-0.495928
0.229222	0.116466	-0.14222
0.309458	0.114847	-0.34959
0.0867619	0.0414403	-0.767894
-0.421288	-0.0313236	-0.374368
-0.438003	-0.00950095	-0.319964
0.142129	0.109556	-0.694118
-0.0061661	0.0182723	-0.256782
-0.383699	0.115609	-0.0380554
0.45067	0.0107333	0.854853
0.249433	0.17853	0.569459
0.404055	-0.150421	0.125261
0.248893	-0.183741	0.0465426
-0.268302	0.152606	0.463262
0.215879	0.0188689	-0.325426
-0.0807743	-0.200454	-0.586388
-0.289327	-0.200454	-0.673509
0.179013	0.132559	-0.773147
-0.411332	0.0370486	0.384422
0.250326	0.0600971	-0.776153
-0.270107	0.0170297	0.128282
0.095293	0.109125	0.83396
-0.417832	-0.133705	0.319336
-0.314277	0.11705	0.0615118
-0.18217	0.024816	0.832857
-0.208915	0.11089	0.741837
0.219296	-0.183741	-0.00227526
-0.436147	-0.0698187	-0.499401
0.153702	-0.200454	-0.699292
-0.093666	0.109635	0.807332
-0.202577	-0.184781	-0.0583232
-0.5474	-0.0265153	-0.596185
-0.390192	0.108868	0.64763
0.145782	0.113871	-0.429661
0.106527	-0.183741	-0.679955
-0.30639	0.0242723	-0.687066
0.401585	0.0297448	-0.628397
0.0117811	0.114717	-0.360208
-0.230243	0.116847	-0.0598344
0.180309	0.0220253	-0.562189
-0.00576868	-0.200454	0.460226
0.0402935	0.11629	0.293507
0.540743	0.0549572	-0.663606
-0.25066	0.112906	0.617803
-0.423144	-0.0233994	0.0644434
0.0854905	0.11693	-0.0131382
0.335819	0.143736	-0.527045
-0.135016	0.149818	-0.528561
0.163594	0.0240336	-0.674588
0.328993	-0.183741	-0.671057
0.36831	0.109349	-0.704976
-0.104771	0.119228	0.624289
0.236493	0.0195096	-0.777059
-0.283539	-0.183741	0.822848
0.0201308	-0.183741	-0.351595
0.20039	0.113557	-0.455501
-0.0144728	0.115604	-0.266909
0.128909	0.116837	-0.0661539
0.355046	0.0171211	-0.0634712
0.0580554	-0.183741	0.172565
0.257049	-0.183741	0.141968
-0.122638	0.211836	0.529438
-0.378978	-0.171609	-0.688007
-0.319545	0.00848014	0.812347
-0.344639	0.0789262	0.892528
0.0317444	0.0191627	-0.353255
0.320808	0.138933	-0.393885
-0.156719	0.0251942	-0.161758
0.390177	-0.16148	0.786285
0.422811	-0.0750566	-0.262807
-0.305241	0.0183515	-0.265893
-0.390577	0.110448	-0.415412
-0.413135	-0.14567	0.82227
0.214012	0.117033	0.0710858
-0.514051	-0.00220399	-0.562667
-0.165582	0.115343	0.414366
-0.300472	0.00947225	0.326117
0.511242	0.116452	-0.452391
-0.248398	0.0251942	-0.14742
0.0315431	-0.183741	0.027183
0.168641	0.0251942	0.594851
-0.356631	-0.181765	-0.0542504
-0.0454262	0.0991228	-0.798676
0.422811	0.0248221	-0.342681
0.433641	-0.119855	0.466139
-0.198095	-0.200454	0.72297
-0.285615	-0.183741	-0.611054
-0.196562	-0.183741	0.471322
0.133457	0.0251942	-0.418278
-0.126046	-0.183741	0.83283
0.120956	0.0251942	0.581055
0.0120713	0.0251942	-0.125924
-0.443572	0.0380683	0.811209
0.394382	-0.169616	-0.0583232
0.0521632	0.0979241	-0.79828
-0.510485	-0.0660073	-0.715131
0.19181	-0.200454	-0.554952
0.246785	0.115839	0.357208
-0.0347027	-0.200454	-0.661304
0.127112	0.110278	-0.656415
-0.361107	-0.198656	0.77791
0.295444	0.146483	-0.607154
0.418929	-0.1302	-0.634913
-0.107602	0.116134	0.323328
-0.285886	0.109571	-0.693333
0.153558	0.0174342	0.247478
-0.318941	0.11444	-0.382935
0.417595	0.0901215	-0.540158
0.112506	0.0223296	-0.581623
-0.307495	0.00848014	-0.537144
-0.297313	0.0251942	-0.476625
0.000801517	-0.200454	0.669144
0.0335868	0.213019	0.673583
0.311828	0.136231	0.605892
-0.186433	0.110529	-0.643277
0.493446	0.064638	-0.742602
0.231403	0.0171176	-0.0614265
0.269037	0.0172411	0.21056
-0.426224	-0.109283	0.646845
-0.067003	0.149863	0.705772
-0.119301	0.116641	0.226025
-0.190581	0.158123	-0.429059
-0.385513	0.0251942	-0.742532
0.147036	0.113978	0.464504
0.413634	-0.123919	0.754055
0.193255	0.114313	-0.393399
-0.288706	0.116985	0.0186713
-0.162012	0.00848014	0.126642
0.39172	0.0194227	0.298877
0.222527	0.106878	0.864578
-0.42109	-0.102634	-0.168029
0.384308	0.00848014	0.142307
-0.049785	-0.183741	-0.315344
0.221228	-0.200454	0.405609
0.247767	0.162808	-0.629739
-0.441454	-0.00338851	0.610267
-0.0169372	0.0191194	0.467063
0.279167	0.118452	0.644748
0.383526	-0.18899	0.138406
0.0824976	0.113719	0.477666
0.141752	0.174455	0.5056
0.132331	0.0188707	-0.325639
0.380788	0.140105	-0.753454
0.0829412	0.0186158	-0.296307
-0.171147	0.152337	-0.695561
0.284924	0.0251942	-0.533215
0.424665	-0.0408403	-0.685821
0.44138	-0.0147587	-0.6083
-0.400022	0.0158813	-0.676771
0.0548182	0.112504	0.385632
-0.250084	0.0510436	-0.773515
0.184741	0.00848014	-0.390585
0.332504	-0.200454	0.666242
-0.18897	-0.183741	0.780131
0.24778	0.165013	0.704367
