ply
format ascii 1.0
comment VCGLIB generated
element vertex 1618
property float x
property float y
property float z
element face 0
property list uchar int vertex_indices
end_header
-0.000437607	0.376143	0.233645
-0.172157	0.262086	0.22583
-0.215473	-0.16547	-0.07374
0.0590831	0.08227	0.205026
0.325775	-0.174833	0.00795279
0.368804	-0.603992	-0.469744
0.274065	-0.174833	-0.108318
0.0597118	0.417907	0.227538
0.100383	0.482562	0.249129
-0.221669	-0.16547	-0.279768
-0.0647126	-0.174833	-0.0192283
-0.270477	-0.0669356	0.18443
-0.380349	-0.647052	-0.477213
-0.0492215	-0.174833	-0.446808
0.0051595	-0.118164	0.165205
0.236384	-0.183575	0.0447621
0.0401902	0.132457	0.210833
-0.147619	-0.174833	-0.229382
-0.203378	-0.166426	-0.499338
-0.180122	-0.0162079	0.193631
0.210161	-0.174833	-0.356098
-0.266036	0.512735	0.238511
-0.282183	-0.181274	-0.517894
0.0632184	-0.16547	-0.455352
0.0816928	0.294031	0.229526
-0.214429	-0.16547	-0.182314
-0.165472	0.0362598	0.199701
0.220578	0.32521	0.226234
-0.377192	-0.390362	-0.472777
0.127555	-0.16547	-0.432831
0.333483	-0.169903	0.104451
-0.0753706	-0.116809	0.166652
-0.19011	0.479925	0.248745
-0.381136	-0.598054	0.0545245
-0.278148	-0.174833	-0.349391
-0.128709	-0.174833	-0.0967814
0.0427584	0.243932	0.22373
-0.362287	0.228483	0.212211
-0.135945	0.183286	0.200392
-0.237872	0.436254	0.229662
0.260023	0.353184	0.236371
0.205495	0.373908	0.238769
-0.143792	0.0990957	0.206972
0.307039	0.314002	0.231838
-0.0658474	-0.198244	-0.477517
0.0725701	0.548842	0.242689
-0.34169	0.417903	0.24386
-0.0212336	0.0828902	0.205097
0.191579	0.498594	0.236874
-0.19539	-0.073726	0.186976
0.207656	-0.0295877	0.192083
-0.161925	0.509469	0.238133
-0.119939	0.446614	0.23086
-0.0578734	0.0707158	0.203689
0.257706	-0.174833	-0.273449
-0.29642	0.195365	0.20179
-0.381344	-0.16547	-0.136255
-0.245373	-0.16547	0.0576458
0.00799987	-0.16547	-0.0617592
0.072914	0.469199	0.233474
0.17215	0.442253	0.243263
0.197968	0.127505	0.21026
0.116929	0.242183	0.214153
-0.0270608	-0.181956	-0.519964
-0.222808	0.302178	0.230469
0.331	-0.174833	-0.232364
0.327269	0.12439	0.2099
0.357287	-0.535325	-0.477314
-0.360596	-0.447446	0.0478435
0.378391	-0.740965	0.0495503
0.308735	-0.127428	0.169649
-0.201187	0.392633	0.240935
-0.0872998	0.359213	0.237068
0.0604568	-0.16547	0.0413587
-0.052936	-0.16547	-0.22545
0.116456	-0.16547	-0.318316
-0.353684	0.328677	0.217778
0.235337	0.402236	0.225725
0.163173	-0.161338	0.100152
0.365076	-0.16547	-0.0446503
-0.0566378	0.480463	0.234777
0.120964	0.507607	0.237918
-0.153372	0.558636	0.244239
-0.188987	0.179439	0.216268
0.0858365	-0.198921	0.0581615
0.0424433	0.309687	0.231339
0.149035	0.189961	0.201164
0.0790332	-0.126823	0.170157
0.0258888	-0.174833	-0.443081
-0.0144826	-0.16547	-0.296956
0.24781	0.483977	0.249334
0.372738	0.0617503	0.202651
-0.119925	0.379985	0.239472
0.129626	0.344721	0.235392
0.263443	0.281599	0.211767
0.00946331	-0.0793525	0.186369
0.152943	-0.192427	-0.562508
0.348374	-0.16547	-0.267201
-0.242193	0.382312	0.239741
0.380038	-0.339099	-0.485393
-0.358068	-0.616418	0.0518348
0.00330264	-0.19278	-0.563063
0.362421	-0.216386	-0.492409
-0.16431	-0.174833	-0.478319
-0.366878	-0.210047	-0.470007
-0.290587	-0.174833	-0.276252
-0.101679	-0.192557	-0.471107
0.335189	-0.191365	-0.49311
-0.207539	-0.16547	-0.407178
-0.133226	0.301616	0.230404
-0.163431	-0.16547	0.0480831
-0.336619	-0.16547	-0.493339
-0.108321	-0.16547	0.0569016
-0.330197	0.161062	0.214142
0.0148414	0.504787	0.237591
-0.00255532	-0.197671	-0.476134
0.367321	-0.687779	-0.493868
0.0583677	-0.16547	0.00961711
-0.291699	0.464488	0.249249
0.0366593	0.176936	0.199657
0.311543	0.423584	0.228196
0.172207	-0.180731	-0.5415
-0.254835	0.219973	0.204637
0.282186	-0.190109	-0.558865
-0.3493	0.046419	0.200877
0.0310204	-0.174833	-0.24992
0.348035	-0.16547	0.0447375
-0.0439261	-0.158091	0.110398
0.0359926	-0.16547	-0.33536
0.376889	0.0191657	0.181703
-0.285542	0.062108	0.187952
0.215066	-0.174833	-0.483424
0.189899	-0.141739	0.1408
0.218568	0.173086	0.2041
0.186767	-0.174833	-0.325699
-0.183435	-0.16547	-0.31958
-0.0757307	0.199455	0.218584
-0.050167	-0.197456	0.0625716
-0.138987	-0.174833	-0.163813
0.2513	-0.0997131	0.180406
0.166414	-0.0559933	0.189027
-0.0237913	-0.16547	-0.38414
-0.344547	-0.174833	0.0139958
-0.0483923	-0.16547	-0.331078
0.18445	-0.16547	-0.1237
-0.343068	-0.174833	-0.390055
-0.324381	0.0838179	0.188883
0.0561249	-0.17823	-0.508056
-0.243439	-0.16547	-0.397505
-0.13226	-0.16547	-0.443815
-0.0512009	-0.0418977	0.180819
-0.0835488	0.12047	0.209445
-0.315259	-0.16547	-0.191431
0.153787	0.0670712	0.186946
0.0790883	-0.0423337	0.180867
-0.353882	0.107109	0.207899
0.379323	-0.342978	0.0511407
0.28316	-0.174833	-0.314511
0.370098	-0.752175	-0.493801
-0.0832097	-0.0791543	0.186388
0.328162	-0.16547	-0.105459
-0.0112758	-0.16547	0.0590485
0.32052	-0.00900266	0.17944
-0.376264	-0.174833	-0.180088
0.359253	-0.181741	-0.519312
0.350898	0.343599	0.228909
0.225574	0.0995647	0.193402
0.3587	-0.463456	0.0634951
0.295884	0.517305	0.254184
-0.0890091	-0.16547	-0.086159
-0.260656	-0.174833	-0.185296
0.25171	-0.0210428	0.193071
0.0971995	-0.174833	-0.0990066
0.157275	-0.0961558	0.182092
0.0506678	-0.16547	-0.385903
-0.203826	-0.129362	0.168023
0.255309	-0.19301	-0.545048
-0.11766	0.506576	0.237798
0.115512	0.141679	0.195578
0.155702	0.109517	0.191857
0.335675	0.481363	0.234881
-0.0974734	0.0105646	0.180408
0.29808	-0.172298	0.094823
0.195108	0.525864	0.255429
0.156438	-0.131976	0.152494
0.343638	-0.142532	0.139657
-0.286746	0.316711	0.224997
-0.320267	-0.195238	0.0475342
-0.222907	0.104966	0.194188
0.307505	0.0767749	0.188068
0.165269	-0.174833	-0.435575
-0.213604	-0.173352	0.0890824
-0.342104	-0.174833	-0.116438
0.0746185	-0.187999	-0.555228
0.0188026	0.457107	0.248395
0.299846	-0.174833	-0.419458
0.146135	-0.174833	-0.274607
-0.324054	0.195532	0.218129
-0.292456	0.125294	0.193682
-0.0396717	0.273897	0.218768
0.0907623	0.0788997	0.188314
0.217186	-0.16547	-0.208053
-0.208721	0.151243	0.196685
0.0439548	0.00767267	0.180146
-0.0260329	0.0427726	0.185138
0.0243924	0.211991	0.20976
-0.352371	-0.16547	-0.207438
-0.166116	-0.19224	0.0672808
-0.302145	-0.16547	-0.487615
-0.374418	-0.533677	0.0672995
-0.212648	0.00149716	0.179759
0.0320825	0.0872612	0.189281
-0.138686	0.257323	0.208958
-0.357357	-0.16547	-0.299533
-0.162529	-0.174833	-0.0121106
-0.268292	0.178277	0.216133
-0.173426	-0.198075	-0.553942
-0.217745	0.54045	0.241718
0.167687	0.366826	0.221628
0.0643853	0.351673	0.219875
-0.0876464	-0.174833	-0.408269
-0.0928245	0.421619	0.244289
0.311128	-0.174833	-0.340753
0.307383	0.366739	0.23794
-0.172129	-0.147208	0.132636
-0.0341883	-0.115693	0.166625
-0.188147	0.40344	0.225865
0.0284216	-0.164854	0.0824006
-0.0170336	0.152594	0.201119
0.27472	0.455568	0.245201
-0.12586	-0.174833	-0.314578
-0.0569098	0.435501	0.229574
0.197792	0.345127	0.235439
-0.0816679	0.160537	0.19776
-0.111275	0.0934843	0.206323
-0.1224	-0.0827168	0.183758
-0.146467	-0.16547	-0.376862
-0.207536	0.256085	0.216176
0.111775	0.318268	0.21601
-0.0943699	0.283521	0.228311
-0.0158256	-0.174833	-0.434439
-0.11865	-0.16547	-0.34366
-0.0346129	-0.174833	-0.137365
-0.348371	-0.16547	0.0631051
-0.248159	-0.174833	-0.150118
0.172803	-0.174833	0.0162174
0.380001	-0.417519	-0.478232
-0.0717602	-0.16547	-0.0477572
-0.0311107	-0.00255869	0.195211
0.262419	-0.16547	-0.163512
0.345514	0.239185	0.223182
0.106035	-1.67739e-005	0.1797
0.150174	0.411928	0.238851
-0.350131	-0.174056	-0.525568
0.28986	-0.16547	0.057396
-0.321589	0.295791	0.229729
0.0946831	0.093051	0.206273
0.291447	0.0229794	0.181844
-0.109183	-0.168033	0.110174
0.107845	-0.16547	0.0484509
-0.25373	-0.174833	-0.259797
0.279115	-0.0392966	0.190959
0.165235	0.472491	0.233854
0.321548	-0.174833	-0.461666
0.159363	-0.0195985	0.179463
0.356701	-0.513755	0.0594987
0.0874584	0.250915	0.224539
0.36641	0.137027	0.198853
-0.232421	-0.16547	-0.307243
-0.0135399	0.213375	0.209962
-0.0190263	-0.16547	-0.231226
-0.0845283	0.231454	0.222286
-0.336047	-0.123832	0.160439
-0.0160302	0.186638	0.217101
0.0798406	-0.16547	-0.186162
-0.0262778	-0.193512	-0.492052
0.273027	0.108214	0.191706
-0.297217	0.357535	0.236874
-0.182952	-0.199133	-0.481709
-0.0816402	-0.174833	-0.227548
0.224952	-0.16547	-0.0165258
0.0996998	-0.174833	-0.410258
0.0298864	-0.133927	0.1638
0.23162	0.24684	0.224067
-0.179033	-0.16547	-0.130461
0.0399265	-0.174833	-0.0470397
-0.241128	0.344714	0.21907
0.224204	0.0456901	0.185563
-0.044538	0.0338156	0.199419
0.346948	0.0438405	0.200579
0.142833	0.556167	0.259837
0.0999623	0.528232	0.256625
0.333089	0.278525	0.227733
-0.341978	-0.16547	-0.0533122
-0.30546	0.0339431	0.199434
-0.10829	-0.137553	0.160292
-0.233466	0.557765	0.251766
-0.0753561	-0.198101	-0.553983
0.292095	0.199146	0.20789
-0.0210063	0.35676	0.220464
0.313113	0.550577	0.242889
0.243857	-0.16547	-0.0881637
-0.15704	0.320137	0.232547
0.233009	-0.0442701	0.181082
0.00682617	-0.16547	-0.029379
0.226649	0.497052	0.253017
0.275069	0.418136	0.243887
0.248009	0.209753	0.219776
-0.380803	-0.174833	-0.230881
-0.0161697	0.40099	0.225581
0.221294	0.458842	0.245677
-0.35818	-0.0268139	0.192404
0.150089	-0.16547	-0.160793
-0.160597	0.379282	0.234101
0.37258	-0.576657	-0.493198
0.155939	-0.166324	-0.498883
0.146303	0.282521	0.220022
0.190696	0.0678044	0.18703
-0.340228	0.482938	0.244536
-0.288024	-0.139143	0.144113
0.354022	-0.174833	-0.41555
0.132705	-0.174833	-0.236483
0.179382	-0.16547	0.0733059
0.228818	-0.174833	-0.407403
-0.041401	0.557178	0.256827
-0.11532	0.473335	0.247786
-0.234308	-0.16547	0.0159184
0.115185	-0.190872	-0.54081
0.359886	-0.489534	-0.473237
0.116227	0.0340552	0.183126
-0.330925	-0.202611	-0.561072
0.0204787	-0.16547	0.0460993
-0.169833	0.00430499	0.196004
-0.0492693	-0.16547	-0.475501
-0.0628342	-0.16547	0.058159
0.062356	-0.0702493	0.185051
-0.11669	-0.0489087	0.189847
-0.203553	0.0749085	0.189814
0.273281	0.224042	0.211513
0.258664	0.387858	0.224062
0.358895	-0.62697	-0.489204
-0.357092	-0.665743	-0.481651
-0.346565	-0.174833	-0.354625
0.337841	-0.174833	-0.15661
-0.281714	-0.174833	0.0441648
-0.0660619	-0.174833	-0.102483
-0.380932	-0.282101	-0.478621
-0.378615	-0.206532	0.0488392
0.00796204	-0.0477557	0.189981
-0.0319007	0.332981	0.234033
-0.137226	0.131092	0.194353
-0.0345412	0.4588	0.245671
-0.375715	-0.734496	0.0461885
0.14038	-0.068205	0.184668
-0.292715	0.285744	0.212247
-0.239564	-0.174833	-0.0982609
0.344852	-0.195858	0.0481536
-0.0809805	0.0233183	0.198205
-0.22949	-0.145098	0.151694
0.347416	-0.207318	-0.567723
0.138305	0.0494859	0.201232
0.223902	-0.108491	0.174722
-0.305489	0.521011	0.239468
-0.269265	-0.174282	0.0823496
-0.354127	-0.142373	0.139891
0.380612	-0.167556	-0.444428
0.312093	0.266734	0.217725
0.345484	0.413469	0.235916
0.32151	-0.16547	0.0704582
-0.335428	0.228545	0.205629
0.0581992	-0.168144	0.109839
0.100806	0.218262	0.210673
0.336768	0.165117	0.19829
-0.246702	0.167632	0.203307
0.0892255	0.16074	0.197783
0.161592	-0.174833	-0.107987
0.270058	0.169991	0.203649
0.205801	0.257411	0.208969
-0.0770623	-0.174833	-0.359712
-0.363282	-0.360636	0.0458156
-0.0620289	0.536819	0.257023
0.342975	-0.0298961	0.192048
0.194202	-0.168368	-0.50751
-0.0403271	-0.174833	-0.253021
-0.24493	-0.16547	-0.471441
0.174086	-0.16547	-0.36445
0.277295	0.370096	0.222007
0.379095	-0.287425	0.0622156
-0.329836	0.0229123	0.198157
0.196297	0.410983	0.243058
-0.253092	-0.0234742	0.179595
0.189469	0.0193551	0.181425
-0.194441	0.507586	0.237915
-0.347515	-0.163208	0.0924756
-0.256295	0.412225	0.238895
0.165744	0.427302	0.228626
-0.363756	-0.776659	0.0671873
-0.185287	0.237369	0.20665
-0.195134	-0.174833	-0.438359
-0.205843	-0.189476	-0.557826
-0.36153	-0.690242	0.0471111
-0.184355	-0.174833	-0.0797874
-0.177577	0.0973532	0.206771
0.234376	0.0201843	0.197842
0.00836056	0.528175	0.255765
-0.143369	0.0737743	0.187721
-0.0669731	0.275605	0.227395
-0.316856	-0.034737	0.180196
-0.243777	0.52916	0.256732
0.175017	0.557243	0.256262
0.105005	-0.0292105	0.192127
0.0398864	0.526704	0.240127
-0.263478	0.0319109	0.199198
0.23217	-0.16547	0.0713077
0.288768	0.324836	0.21677
-0.17893	0.337936	0.234606
-0.155579	-0.0398641	0.190894
0.12428	0.160622	0.19777
0.0400003	0.0541611	0.186796
-0.366083	-0.726	-0.470112
-0.236021	-0.198586	-0.485372
-0.120661	-0.224548	-0.587856
-0.367178	-0.594892	-0.493749
-0.263228	0.489438	0.250129
0.198485	0.295691	0.213398
-0.225015	0.452929	0.247912
-0.346272	-0.174833	-0.463895
0.122717	-0.174833	-0.385264
0.179448	0.22663	0.21189
0.243593	-0.16547	-0.22477
0.246097	-0.174833	-0.457755
0.111271	-0.174833	-0.489447
-0.202333	0.314598	0.215586
-0.245453	-0.174833	-0.0412592
0.0157478	-0.16547	-0.288005
-0.0115579	0.508582	0.238031
0.357607	-0.569404	0.0510854
-0.357852	-0.484639	0.0523555
-0.0894135	-0.0123712	0.179393
-0.0547446	0.516153	0.238907
-0.289992	0.231471	0.205967
0.289484	-0.174833	-0.0414237
-0.365824	-0.198633	-0.493499
-0.372001	-0.53792	-0.493652
-0.118086	0.410615	0.23866
0.0135907	-0.174833	-0.315725
-0.138129	0.0486754	0.201138
0.075992	-0.16547	-0.0781481
-0.37011	0.12934	0.205712
0.0863046	-0.153678	0.120691
-0.0410133	0.360491	0.237216
0.249318	0.54955	0.24277
-0.285159	0.0927307	0.192408
-0.372745	0.033136	0.19934
0.0259749	0.256848	0.208904
-0.162286	-0.174833	-0.453245
-0.10864	-0.193448	0.0461605
-0.136891	-0.125277	0.171457
-0.217782	0.12189	0.209609
-0.289907	-0.16547	-0.316612
0.0731412	0.321643	0.232722
-0.0987069	0.398636	0.225309
-0.1143	-0.174833	-0.124801
0.138915	0.324642	0.216747
0.0298903	-0.174833	-0.488958
0.0475311	0.201041	0.218767
0.195206	-0.174833	-0.151612
0.318488	0.493006	0.250648
0.377331	-0.404982	0.0481706
-0.324373	0.363934	0.221294
-0.205603	0.462847	0.24626
-0.108146	0.534936	0.257401
-0.380755	-0.497041	-0.478192
-0.203812	-0.0319054	0.180015
-0.0789994	0.0991399	0.19334
-0.149111	-0.157504	0.111831
-0.0649056	0.138758	0.199105
-0.248422	0.0914844	0.206091
0.0890029	0.50763	0.23792
-0.0370911	-0.166707	-0.500599
-0.279296	0.25865	0.209112
-0.108233	0.31719	0.232206
-0.32779	0.137888	0.21146
0.311867	0.143966	0.195843
-0.106991	-0.179834	-0.513526
-0.315356	0.00126268	0.195652
0.329575	0.148593	0.2127
0.23841	-0.16547	0.0213488
0.0948547	0.029188	0.182562
-0.358227	-0.219721	0.0613584
0.186938	-0.0896854	0.180138
-0.136164	0.438476	0.246239
-0.330962	-0.217082	-0.593598
0.379914	-0.549271	-0.485691
0.380344	-0.678549	0.0584444
0.256491	0.0677304	0.18877
0.174481	0.16193	0.197921
0.115746	-0.174833	-0.35408
0.0914649	-0.174833	-0.453498
0.240972	0.0573767	0.202146
-0.106686	0.0399138	0.200125
-0.380421	-0.174833	-0.336304
0.0527777	0.443783	0.246853
0.151646	-0.16547	-0.0514569
0.0624528	-0.16547	-0.268472
0.1968	0.311702	0.231571
-0.0225253	0.525467	0.256305
-0.29753	-0.164449	0.119579
0.291264	0.440379	0.230139
-0.337332	0.348115	0.235784
0.126822	-0.174833	0.0311919
-0.379956	-0.639662	0.0508119
-0.0158866	-0.0973795	0.181516
0.370013	-0.174833	0.0428862
0.242503	0.425459	0.244734
0.357664	-0.272072	-0.476404
-0.138809	0.0151582	0.180939
0.157414	-0.19379	-0.471866
-0.155732	-0.101148	0.179601
-0.0572368	0.313592	0.23179
0.0746444	0.492181	0.250528
-0.362693	-0.398517	0.0462183
-0.369345	-0.16547	-0.0064542
0.0285344	0.381561	0.239654
-0.319811	-0.174833	-0.252935
0.0103034	0.345511	0.219163
-0.185661	0.448827	0.24422
-0.194972	0.276783	0.219188
-0.218065	-0.16547	-0.37224
0.0108804	0.00939476	0.180272
-0.116266	0.25638	0.22517
-0.158537	0.0905787	0.189665
-0.00707269	0.294424	0.213251
-0.235163	-0.189782	0.0681958
0.137132	0.121399	0.209553
0.187896	-0.16547	-0.47842
-0.237171	-0.16547	-0.203691
0.256255	-0.16547	-0.301831
0.349112	-0.165194	0.0793897
0.371906	-0.174833	-0.339837
-0.201879	-0.174833	-0.259833
0.263667	0.0191011	0.181395
-0.182679	0.200748	0.218734
-0.226705	-0.0460592	0.18128
-0.276093	0.4294	0.245189
0.102004	0.459191	0.232316
0.23069	0.554493	0.259594
-0.287113	-0.174833	-0.0960098
-0.207454	0.0458906	0.200816
0.00479097	0.0924189	0.189879
-0.253715	-0.16547	-0.36935
0.224941	0.202941	0.208444
0.345522	0.123161	0.196835
-0.280706	0.347572	0.2194
0.319539	-0.174833	0.0454698
0.360945	-0.360484	-0.491292
0.0631075	0.253537	0.224842
-0.274965	0.21029	0.219837
-0.163145	0.193564	0.20708
0.171748	0.192185	0.217743
0.318886	0.405418	0.237904
0.289974	0.496896	0.236678
-0.139393	0.339469	0.234784
0.00965284	0.483548	0.249272
-0.0286406	0.242917	0.223613
-0.0504907	-0.16547	0.0137256
-0.257827	0.0629966	0.202796
-0.110715	-0.0062696	0.194781
-0.329019	0.254643	0.208648
0.194487	0.450026	0.231255
-0.286394	-0.16547	-0.201336
0.129493	0.214635	0.20402
-0.185726	0.147457	0.212567
-0.120404	0.155143	0.197136
-0.379834	-0.575375	-0.47597
0.151941	0.446832	0.24393
0.282141	0.079508	0.204706
0.226478	0.0805122	0.204823
-0.259125	-0.16547	-0.449289
-0.132085	0.391252	0.224455
0.0183817	0.299838	0.230198
0.241616	0.153288	0.213243
-0.233147	0.247028	0.224088
0.302942	-0.177404	-0.505055
0.0352311	-0.0659756	0.18425
-0.0823971	0.0683549	0.187094
0.315831	0.0478174	0.184718
-0.201067	0.377886	0.222908
0.346248	0.0898218	0.191984
0.0113987	-0.16547	-0.209097
0.333153	0.315792	0.232045
0.0617652	0.151615	0.200976
0.21036	-0.16547	0.0543673
0.314856	0.211133	0.219936
0.0538511	0.107788	0.194599
-0.149176	0.24024	0.206982
-0.222563	-0.187504	-0.533701
0.253343	-0.16547	-0.484986
-0.023103	-0.18881	0.0683232
0.0378752	-0.00137269	0.195347
-0.154349	0.282657	0.220043
0.157918	-0.16547	-0.317008
0.372055	-0.718765	0.0679604
-0.240712	0.262841	0.209597
0.0935183	0.398815	0.236943
0.345253	-0.174833	-0.014153
0.358082	-0.335782	-0.47557
-0.117867	0.558533	0.245135
-0.336252	0.285134	0.212177
-0.15505	0.116187	0.20895
-0.0429601	0.0848314	0.189
0.00473995	0.0503313	0.185009
-0.329788	-0.174833	-0.296072
0.359603	-0.759581	0.0646726
-0.275157	0.139943	0.211698
0.132699	0.529126	0.255903
-0.0823333	0.333368	0.234078
0.142161	0.254183	0.208595
0.155919	0.0814043	0.204925
0.332766	0.22621	0.205359
-0.381158	-0.433841	0.0581131
-0.194222	-0.16547	0.0688652
0.120651	-0.135082	0.149048
-0.264985	0.00769137	0.180147
0.350915	0.0661307	0.188537
0.149076	0.506741	0.252647
0.0125014	0.189718	0.217457
-0.240386	0.398766	0.225324
0.0717393	0.522421	0.254928
-0.141286	0.499177	0.251546
-0.32419	0.556863	0.259542
-0.359299	-0.36899	-0.488728
0.191955	-0.174833	0.0472131
0.21017	-0.126866	0.157602
-0.255756	-0.201419	-0.575456
0.260231	-0.16547	-0.0424817
0.364391	-0.358354	0.0677693
-0.130863	0.209192	0.209353
-0.109216	-0.206742	-0.566909
-0.00436332	0.411711	0.243142
0.0916314	0.555427	0.259772
-0.0153406	0.117745	0.192809
-0.0501974	-0.141576	0.141008
0.376786	-0.227458	-0.473057
-0.216845	-0.174833	-0.04812
-0.0917116	0.349922	0.219672
0.106613	-0.174833	-0.174948
-0.287779	-0.174833	-0.462503
-0.363378	-0.298436	0.0670302
0.0655011	0.230115	0.205811
-0.367996	-0.576987	0.0684014
-0.252109	0.309759	0.223986
0.151345	-0.191463	0.0451979
0.207494	-0.174833	-0.0583813
0.282808	-0.174833	-0.480747
-0.0541289	-0.16547	-0.420503
-0.345304	-0.198815	-0.479297
-0.225026	0.405843	0.242464
0.209794	-0.180839	-0.541713
-0.13507	-0.174833	-0.261783
-0.259541	0.377211	0.22283
0.259244	-0.156259	0.135697
0.122624	0.410844	0.243042
-0.217893	-0.17815	0.0481247
0.0603175	-0.0257944	0.192522
-0.0914677	0.260821	0.225684
0.0758321	-0.174833	-0.483475
0.224858	-0.0114426	0.179406
-0.233152	0.361726	0.237359
-0.053866	-0.184253	-0.525986
0.272352	0.344036	0.218992
0.335449	-0.16547	-0.484026
0.324528	0.461156	0.248864
-0.277135	0.479993	0.234722
-0.376202	-0.248289	-0.472017
-0.296516	-0.196972	0.063202
0.29626	-0.174833	-0.168105
0.216633	-0.16547	-0.254282
0.331505	-0.174833	-0.0562114
-0.213788	0.494388	0.250849
-0.0204257	-0.16547	-0.166771
-0.241336	-0.172962	0.0912038
-0.0375615	-0.0212696	0.179517
-0.146714	-0.16547	-0.0778898
0.29461	-0.0272285	0.179732
-0.244744	0.287072	0.212401
-0.339286	0.0686786	0.203452
0.0271456	0.158293	0.201948
-0.224294	-0.16547	-0.156473
0.199246	0.106977	0.19448
0.238915	0.232139	0.206044
-0.357911	-0.626059	-0.486048
0.105654	-0.16547	-0.123564
0.295269	-0.0742551	0.185905
-0.175996	-0.174833	-0.250281
-0.296064	-0.16547	-0.16912
-0.357686	-0.480696	-0.478211
0.197396	0.392037	0.224545
-0.208369	-0.224342	-0.587642
-0.0807942	-0.175164	-0.479347
0.0255508	-0.174833	-0.158526
0.234144	0.122323	0.20966
0.294326	-0.218819	-0.595408
-0.0535651	0.203103	0.208467
-0.0825788	0.483608	0.251461
0.0249867	-0.16547	-0.37612
-0.091963	-0.174833	-0.0157459
-0.0402673	-0.189922	-0.470084
-0.143992	-0.174833	-0.293951
-0.161023	0.412323	0.243213
-0.0568592	-0.101567	0.179364
0.259541	-0.16547	-0.12961
0.0524006	-0.174833	-0.113099
0.0227351	-0.101481	0.179413
0.356164	-0.16547	-0.109603
0.380612	-0.173842	-0.170048
0.300399	-0.194884	0.0472624
-0.0616866	0.166081	0.198402
0.158354	0.344254	0.219016
-0.227425	-0.0751981	0.186106
0.0725576	-0.16547	-0.0136152
0.0959439	0.194116	0.201645
0.0817587	0.271105	0.218361
0.168398	0.0424668	0.184099
-0.358762	-0.412533	-0.475688
0.194825	-0.174833	-0.195802
0.33399	-0.124012	0.160287
-0.110482	-0.156771	0.134816
0.115136	-0.16547	-0.212696
0.0834413	-0.0902399	0.184226
-0.370789	-0.756797	-0.469905
0.320418	0.375645	0.222649
-0.381083	-0.336987	0.0541226
-0.154347	0.541503	0.25816
-0.190194	-0.16547	-0.104352
-0.292044	-0.16547	-0.43764
0.247126	-0.16547	-0.251428
-0.338516	0.0322218	0.183603
-0.135176	-0.16547	-0.0241456
-0.358278	-0.299217	-0.486936
-0.185406	-0.174833	-0.154689
0.304195	-0.0485463	0.18989
0.0265825	-0.158773	0.108355
0.361359	-0.618107	0.0661551
0.380214	-0.70566	-0.478828
-0.0169693	-0.174833	-0.0611843
0.319375	-0.174833	-0.401303
-0.106737	-0.16547	-0.175906
0.0258511	-0.219405	-0.595508
0.32816	-0.16547	-0.434252
0.253547	-0.16547	-0.401896
0.231608	-0.16547	-0.345513
-0.341869	0.18001	0.200013
-0.262355	-0.16547	-0.285977
0.0886919	0.361549	0.221018
0.326966	-0.174833	-0.375185
0.352199	-0.0659525	0.184246
-0.133318	0.321729	0.216411
-0.172726	0.21135	0.203639
-0.0748909	-0.191953	0.0454061
-0.0354311	0.529562	0.240458
-0.214854	0.181226	0.200153
0.240557	0.262919	0.209606
-0.00220822	-0.174833	0.0404769
0.0556661	0.491635	0.23607
0.346813	-0.174833	-0.33225
-0.280005	-0.179073	-0.490975
0.0541301	0.0289569	0.182536
0.250938	0.420455	0.227833
0.136829	-0.182835	-0.493196
-0.0919758	0.142566	0.19568
0.179897	0.332534	0.217661
-0.0388733	0.420824	0.240146
5.5863e-005	0.437833	0.246165
-0.272425	-0.174833	-0.385235
-0.106858	0.22331	0.221344
0.180733	0.381239	0.239617
0.238654	0.347265	0.219366
0.365943	-0.533715	0.0445743
-0.14128	0.459413	0.232341
0.336091	0.0268806	0.182295
0.0989547	-0.192695	-0.562929
0.0180309	0.320918	0.216317
0.106562	0.107343	0.191605
-0.0020293	0.153086	0.213219
0.33963	0.203801	0.219088
0.0560789	-0.174833	-0.432359
-0.094866	0.382122	0.239719
0.249922	0.300835	0.222687
-0.362309	-0.446284	-0.471969
0.177472	-0.0090256	0.194462
0.165361	0.00984588	0.180324
0.267741	-0.191836	-0.492916
0.112448	0.483471	0.235125
-0.09817	0.306248	0.214619
0.136391	-0.190128	0.0681499
-0.257305	0.115295	0.195691
0.367414	-0.174833	-0.250194
0.0205399	0.1112	0.192051
-0.181162	0.379183	0.234087
0.232338	-0.16547	-0.386621
0.050832	0.537891	0.257179
-0.166918	-0.0808681	0.186227
-0.0421378	-0.174833	-0.0313729
0.0682338	-0.174833	0.0639165
-0.267368	0.226325	0.221693
0.239421	-0.188718	0.0683359
0.113308	-0.174833	-0.467733
0.363113	-0.298295	0.0455658
-0.308094	-0.174853	0.0562525
0.0936916	-0.16547	-0.0414006
-0.353749	-0.174833	-0.330183
0.307483	-0.16547	-0.235118
-0.381383	-0.180356	-0.517882
-0.33895	-0.16547	-0.413344
-0.307248	0.446374	0.243863
-0.277678	0.536775	0.241292
0.0201172	-0.174833	0.0231142
0.0497718	0.169099	0.215072
0.379743	-0.774375	-0.486107
-0.2976	-0.16547	-0.362765
-0.360243	0.163796	0.198137
-0.240615	-0.16547	-0.126489
0.365455	-0.174833	-0.365171
-0.118188	-0.174833	-0.463847
0.168507	-0.149044	0.129479
0.374639	-0.196352	-0.471408
-0.0336083	0.0201766	0.18185
0.131051	0.0786703	0.190361
0.177458	0.418673	0.243949
-0.213509	-0.0958324	0.176944
0.297676	0.101199	0.190894
-0.241701	0.330241	0.233716
-0.0643203	0.361541	0.23152
0.356778	-0.638999	0.0530887
0.0796137	-0.16547	-0.116832
-0.321916	0.123381	0.193461
-0.114028	0.174651	0.199393
-0.195092	-0.210384	-0.571711
0.374452	0.0800976	0.189219
-0.190284	0.419163	0.244005
-0.29331	0.493192	0.23625
0.0363312	0.438548	0.229927
-0.317932	0.412028	0.238866
0.0705542	0.0671221	0.186951
0.215726	0.398553	0.236905
-0.381383	-0.170888	-0.101216
-0.0388877	-0.16547	0.0649657
-0.127578	-0.192622	0.0671253
0.216771	0.0167342	0.181349
0.167458	-0.174833	-0.0837495
-0.0557487	-0.172656	0.0928698
-0.242879	0.240542	0.207017
-0.0171399	-0.174833	-0.361922
-0.177793	-0.16547	0.00504472
-0.324767	-0.174833	-0.43362
0.278806	-0.187832	-0.534441
-0.285662	-0.16547	-0.0269356
0.0633349	0.299324	0.213818
-0.00943035	-0.0651894	0.187964
0.149153	0.0384857	0.183638
-0.290214	-0.172225	0.0952197
-0.0176669	0.0536998	0.20172
-0.350396	0.299042	0.230106
0.261228	0.403792	0.242227
-0.267237	-0.16547	-0.162599
-0.220242	-0.16547	-0.469777
0.0470438	-0.176094	-0.530853
0.27022	-0.165958	0.115895
-0.372991	-0.505906	0.0678908
-0.129956	0.0716724	0.203799
0.357665	-0.308256	-0.487315
0.17398	-0.180976	-0.516991
-0.161573	0.39983	0.225447
0.376014	-0.783248	0.0470092
-0.284599	0.517044	0.254145
0.294708	-0.174833	0.0343234
0.178613	-0.174833	-0.415012
0.0976829	-0.174833	-0.0660874
0.376489	-0.36955	0.0473745
-0.117847	-0.174833	-0.291533
0.162957	-0.16547	-0.259634
-0.13866	-0.174833	-0.125617
0.191642	0.206169	0.203039
-0.0222131	-0.174833	-0.406577
-0.104213	0.271651	0.210616
0.346034	0.00744499	0.180132
-0.0220311	-0.136166	0.161636
0.128952	-0.0149717	0.193774
-0.381383	-0.0313922	0.186787
0.259222	-0.00168788	0.179635
0.017295	-0.195941	-0.489999
0.144312	0.000945784	0.179737
0.0438135	-0.174845	0.0564929
0.0541249	-0.133542	0.164172
-0.107748	-0.02818	0.179789
-0.379899	-0.750718	0.0621332
-0.154624	-0.19698	-0.488647
-0.325274	-0.174833	-0.134279
-0.16713	0.462215	0.246168
0.326689	-0.0685525	0.184734
0.126124	0.300502	0.213955
0.377677	-0.16547	-0.198134
-0.154561	-0.174833	-0.397573
-0.125057	0.113125	0.208596
-0.0551765	-0.16547	-0.355971
0.263153	0.535777	0.256871
0.281062	-0.174833	-0.27918
-0.0330324	0.152416	0.196821
0.340054	-0.174833	-0.0786588
0.367114	-0.142853	0.154413
-0.146011	-0.180035	-0.539955
0.324267	0.295614	0.213389
0.020085	0.540543	0.241728
-0.211739	0.0285288	0.182486
-0.369325	-0.16547	-0.159079
-0.100922	-0.174833	0.0223496
0.0656043	0.513274	0.238573
0.0720246	0.0986225	0.193265
0.359366	-0.174833	-0.220915
-0.357425	-0.16547	-0.135702
0.358042	-0.3987	-0.488093
0.150301	0.133312	0.198312
-0.174009	-0.190468	0.0447918
-0.357967	0.0641945	0.188255
-0.130797	-0.176039	-0.486915
-0.319555	-0.140724	0.156775
0.272627	0.5074	0.254215
-0.0319329	-0.181647	-0.543315
-0.0676041	-0.0590609	0.183059
-0.366316	-0.780169	-0.470081
-0.00918721	-0.169255	-0.510731
0.184527	0.417824	0.227529
0.00749952	-0.174833	0.0677531
-0.102921	-0.177862	-0.489761
-0.381156	-0.226125	-0.480132
-0.0830692	0.212204	0.203738
-0.0631796	-0.174833	-0.246637
-0.240818	0.220858	0.22106
-0.364643	-0.351281	0.0675552
-0.251533	-0.0536029	0.189304
-0.128579	-0.172864	-0.522292
-0.183141	0.0613315	0.186282
0.133547	0.172756	0.215495
-0.0704579	-0.0264775	0.179703
0.193623	0.153134	0.213225
0.360625	-0.725619	0.0472148
-0.259231	0.270977	0.210539
0.298615	0.429346	0.245184
0.359322	-0.674786	0.048501
0.068744	-0.174833	-0.289128
0.0978562	-0.107761	0.175281
-0.381246	-0.670288	-0.480809
-0.365575	-0.16547	0.018778
0.156086	-0.16547	0.070154
0.213544	0.537716	0.241401
0.306447	-0.16547	-0.013769
-0.350698	0.253094	0.215741
0.0972666	-0.137671	0.160161
0.0210264	0.0683472	0.188859
-0.168922	-0.20229	-0.576565
0.377969	-0.194099	0.0581318
-0.0647267	0.110213	0.208258
0.168701	-0.174833	-0.138283
0.187673	-0.0306064	0.179936
-0.211812	0.553242	0.259413
0.377753	-0.516904	-0.474174
-0.312667	-0.174833	-0.103041
0.313991	-0.0284077	0.192219
0.129747	-0.16547	-0.299087
-0.232269	0.208315	0.203288
0.350845	-0.185934	0.068426
-0.150461	-0.16547	-0.208177
0.344551	0.183727	0.200443
-0.0552791	0.294691	0.229603
-0.304698	0.34057	0.218591
0.0987576	0.295913	0.213424
-0.221516	0.434128	0.245736
0.0120683	-0.174833	-0.422935
-0.0470274	-0.182115	0.0453627
-0.370356	-0.452111	0.0684133
0.070445	-0.207223	-0.567589
0.356836	-0.590902	0.0598615
-0.369624	-0.191515	-0.561075
0.125097	-0.16547	-0.409767
0.327973	0.248745	0.207966
0.0155488	-0.174833	-0.0815779
-0.312389	-0.181669	-0.519091
0.117709	-0.174833	-0.0878853
0.191006	0.0468914	0.185737
0.0118468	0.218076	0.220738
0.0869699	-0.174833	-0.325891
-0.0327199	-0.16547	-0.098454
-0.280599	-0.124185	0.160142
0.24023	-0.199724	-0.573201
0.380195	-0.36225	-0.478703
-0.25678	0.196292	0.207477
0.3486	-0.218527	-0.595104
-0.0845557	-0.16547	-0.206694
0.168539	-0.213769	-0.590149
-0.247088	0.0398297	0.18471
-0.00887263	-5.75504e-005	0.179698
-0.143376	0.521519	0.255849
0.377692	-0.450536	0.0641663
-0.157156	-0.174833	-0.32124
0.165381	0.205936	0.203013
0.293534	0.280475	0.227959
-0.0148024	-0.207878	-0.583493
0.299084	-0.16547	-0.0921027
0.129415	-0.174833	-0.157648
0.13255	-0.174833	-0.4553
-0.101874	-0.174833	-0.356116
0.23003	0.385535	0.240115
0.204754	-0.152259	0.123572
0.0769041	-0.135172	0.148949
0.243104	-0.117196	0.165844
0.00149305	0.0300427	0.182662
-0.106137	-0.16547	-0.000439249
0.0902509	-0.219721	-0.582828
0.208802	-0.16547	-0.418779
0.348264	0.32445	0.216725
0.0290902	-0.16547	-0.0242654
-0.136419	0.556999	0.258373
0.153496	-0.16547	-0.235365
-0.351452	0.0932073	0.18997
0.275329	-0.100044	0.174756
0.315291	0.531852	0.257044
-0.039419	0.483772	0.249304
0.0379006	0.0740334	0.204072
0.250856	-0.174833	-0.0664599
0.289279	0.472842	0.247714
0.372353	-0.669052	-0.470424
0.364164	-0.22085	0.0451308
-0.250301	0.508671	0.254362
-0.357285	-0.343426	-0.483536
-0.284171	0.0305133	0.182716
-0.230729	0.000555831	0.195571
-0.0600293	-0.136954	0.160875
-0.0642407	0.23779	0.213515
-0.378781	-0.621139	0.0637508
-0.321432	-0.18647	-0.469767
-0.286018	-0.16547	0.0699985
0.280606	-0.174833	-0.140068
0.0758907	0.447677	0.244053
-0.109301	0.485763	0.23539
-0.201326	-0.16547	-0.339489
0.371078	-0.396778	0.068217
-0.2851	-0.0500024	0.181748
0.374151	-0.431561	0.0457136
-0.0707229	0.159928	0.214011
-0.224564	0.0541365	0.185449
0.279563	-0.174833	-0.072858
-0.375625	-0.540357	-0.471575
0.244432	0.170319	0.198892
0.14564	-0.174833	-0.0709374
0.356466	-0.190529	-0.483161
0.330144	-0.16547	0.028989
0.380164	-0.621262	-0.48509
-0.0327662	-0.174833	-0.305832
-0.0221568	0.289422	0.228993
0.0538779	-0.16547	-0.0259008
0.0560075	0.0602678	0.20248
0.37024	-0.527585	-0.493782
0.230706	0.514268	0.238688
-0.358681	-0.638767	0.0624544
0.178284	-0.136002	0.161795
0.193488	0.264571	0.226119
-0.327899	0.270538	0.226808
-0.150681	-0.174306	0.0821431
0.101315	-0.174833	0.0293356
0.0132738	-0.144742	0.152149
-0.313401	0.47437	0.234072
0.0883988	0.0142297	0.197153
-0.184547	-0.174833	-0.199819
-8.08098e-005	-0.175653	-0.477732
-0.313334	0.282448	0.211866
0.258337	-0.180554	0.046129
0.108525	-0.174833	-0.150156
0.0101282	0.409104	0.226521
0.344346	-0.155337	0.117123
0.312569	-0.175338	-0.485221
0.110899	0.448649	0.247417
-0.3736	-0.359168	-0.470622
0.0491249	0.558149	0.248445
-0.159199	-0.0212424	0.179515
0.325449	0.0387737	0.199993
0.0843349	-0.16547	0.0520344
-0.0166518	-0.200749	-0.558144
0.0400378	0.483459	0.249259
-0.102206	0.44292	0.243361
-0.0252054	0.369226	0.238227
-0.187312	0.0545621	0.201819
-0.342194	0.448909	0.246613
0.237429	-0.174833	-0.437612
-0.105875	0.0564167	0.185712
-0.100884	0.0849444	0.189014
0.243726	0.462653	0.246232
-0.355262	-0.16547	-0.0358875
0.0159746	0.245239	0.223881
0.108379	-0.16547	-0.294342
0.158835	-0.16547	-0.41514
0.209067	0.079141	0.19043
-0.0732897	-0.177712	-0.534721
-0.121695	0.358965	0.237039
-0.147612	-0.165764	-0.496369
0.118303	-0.0795458	0.186351
-0.0281111	-0.195999	0.0483371
0.167236	0.174729	0.215723
-0.31199	0.0191495	0.181701
-0.223699	-0.16547	-0.421756
0.0896689	0.056805	0.185757
0.367763	-0.729919	-0.493926
0.0562809	0.335266	0.234298
-0.296741	-0.16547	-0.246535
-0.374624	-0.187207	-0.471077
0.203589	0.50469	0.253901
0.0255977	0.196925	0.201971
-0.355243	0.201961	0.218873
-0.219066	-0.174833	-0.32155
0.312431	-0.167932	0.110481
0.0148176	-0.174833	-0.348682
0.29447	-0.174833	0.0111055
-0.380981	-0.720687	-0.484918
0.26916	-0.16547	-0.257638
0.358002	-0.495418	0.0502206
0.320818	-0.16547	-0.127519
0.251933	-0.0665781	0.187803
-0.068748	0.511275	0.254663
-0.0616882	-0.159332	0.130401
0.0457996	-0.190422	-0.49349
-0.266102	-0.174833	-0.206211
-0.288886	0.408967	0.242825
-0.365986	-0.712328	0.0446958
-0.0598675	-0.174833	-0.207258
0.255773	-0.174833	-0.327314
0.272897	-0.16547	-0.411481
-0.327253	0.216744	0.220584
-0.35887	-0.68621	-0.488169
0.112229	0.302312	0.230485
-0.147183	0.395849	0.236512
0.213699	0.121924	0.196655
-0.280857	0.166568	0.203152
-0.250262	-0.16547	-0.000871675
0.12777	-0.16547	-0.109734
0.19645	-0.18469	-0.493715
0.380612	-0.166643	-0.0202707
0.278491	0.257162	0.216333
0.0352952	0.221925	0.221184
0.369195	-0.484029	0.0684651
0.136312	-0.16547	-0.216048
-0.0441436	-0.174833	-0.400419
-0.365416	-0.16547	-0.475812
-0.27437	-0.15466	0.138448
-0.188975	-0.16547	-0.298877
-0.162911	-0.174833	-0.366813
0.13369	0.408065	0.2264
0.351326	0.144303	0.212204
0.195972	-0.047557	0.190004
0.357704	-0.77894	-0.487408
0.0462593	-0.195596	-0.567373
0.0524039	-0.16547	-0.241889
-0.300412	0.176732	0.215955
-0.365795	-0.174833	0.049467
-0.128371	-0.16547	0.0495622
0.215272	0.355361	0.220302
0.357199	-0.417227	-0.477526
-0.353092	-0.190115	-0.539312
-0.188453	-0.104304	0.177709
0.25536	0.366006	0.221534
-0.0747295	0.383221	0.239846
-0.380597	-0.518361	-0.477811
0.261938	-0.174833	-0.182646
-0.191037	-0.16547	0.0478052
0.0759876	0.154983	0.213439
-0.378488	-0.42039	-0.474129
-0.102126	-0.18274	0.0676996
0.0511644	0.322168	0.216462
0.317387	-0.174833	-0.0763086
-0.370693	-0.418144	0.0444367
-0.381106	-0.686099	0.054296
0.285823	0.535832	0.256879
0.290677	0.0638173	0.1882
-0.333724	-0.174833	-0.160113
0.0714684	-0.16547	-0.205653
0.360514	0.0441974	0.184299
-0.302645	0.532389	0.257106
-0.0755445	0.323501	0.216616
0.376295	-0.666281	-0.491037
-0.3433	-0.214316	-0.576627
-0.373806	-0.249501	-0.493009
-0.221079	-0.174833	-0.108537
0.115507	0.532112	0.240753
0.00952974	-0.175592	-0.497422
-0.202999	-0.16547	-0.227789
-0.102567	0.11778	0.192813
0.320531	0.32243	0.216492
0.0914785	-0.180438	0.0665688
-0.144699	0.470485	0.249943
0.182873	0.459235	0.248642
0.374225	-0.529674	0.0670616
0.147403	0.359185	0.237066
0.365878	-0.328167	0.0445828
0.0511142	-0.0479559	0.189958
0.349258	-0.0143031	0.179407
0.380532	-0.309844	0.0557861
-0.337403	-0.16547	0.0451962
-0.0368613	0.404541	0.225992
-0.332173	-0.174833	-0.0373112
-0.077851	0.0770867	0.204426
-0.198249	-0.16547	-0.0457953
-0.164144	0.521016	0.25579
-0.171777	0.542128	0.241911
0.360157	-0.355008	0.0475742
0.361825	-0.468774	-0.471749
0.269951	-0.0219586	0.179541
-0.276414	-0.16547	-0.233603
-0.237726	0.119652	0.19303
0.0152174	0.385857	0.22383
-0.358368	-0.461857	-0.487152
-0.0905485	-0.16547	-0.38988
0.347748	-0.174833	-0.376499
-0.306433	-0.20076	-0.574617
0.124982	0.464803	0.232965
-0.380334	-0.223277	0.0610832
0.197261	-0.0100706	0.179425
-0.234657	-0.147738	0.131725
0.361761	-0.0387452	0.191023
0.25337	0.114907	0.19248
0.0635098	0.00912544	0.180241
0.169263	-0.174833	-0.336828
0.170121	-0.179364	-0.491201
-0.188956	-0.17833	-0.490371
0.326938	0.00759112	0.196385
0.183046	0.479823	0.251024
-0.146162	0.295192	0.21334
-0.237366	0.0791087	0.188338
-0.302943	-0.0151671	0.193751
0.378005	-0.226336	0.0637593
0.28645	-0.16547	-0.0190057
0.190628	-0.189133	-0.537365
-0.146776	-0.158219	0.132326
-0.331376	-0.18448	-0.548929
-0.169663	0.320245	0.216239
-0.271885	0.0470222	0.184626
-0.359556	0.0318472	0.183549
0.204945	0.542585	0.258286
-0.00947377	0.341773	0.228644
0.297973	-0.18366	-0.547304
-0.0534018	0.0140657	0.180813
0.136705	-0.195998	-0.550351
0.259527	-0.136324	0.161484
0.279824	0.016063	0.197365
-0.35548	-0.129594	0.167826
0.309463	0.337802	0.234592
0.175239	-0.174833	-0.308653
-0.136969	0.195116	0.218082
0.333407	0.553829	0.243495
0.359189	-0.287904	-0.489587
-0.358651	-0.580289	0.0504253
0.028078	0.137726	0.195121
-0.0774494	0.184401	0.205746
-0.16188	0.016148	0.181264
0.282487	0.180218	0.216359
0.219012	0.308232	0.214849
-0.0954463	-0.0993918	0.180559
-0.249663	0.549058	0.242713
0.202832	0.438888	0.246288
-0.0139179	-0.188863	-0.536765
0.231208	-0.180075	-0.471972
0.234566	0.489316	0.235801
-0.355612	-0.174833	-0.18954
0.033131	0.401361	0.241945
0.0434287	-0.16547	-0.16186
-0.379492	-0.324257	-0.488279
0.208355	-0.16547	-0.183663
0.00666429	0.204574	0.202855
-0.226317	0.141906	0.211925
0.0600975	-0.194281	0.0468002
0.0815711	-0.174833	-0.420949
-0.134193	-0.0432576	0.18097
0.189645	0.0889017	0.189472
-0.0768479	-0.16547	-0.432855
0.00148804	0.104247	0.207568
-0.332569	0.0129188	0.18068
-0.155466	-0.16547	-0.156268
0.294001	-0.192483	-0.492653
-0.229812	0.0189218	0.181375
-0.138735	-0.174833	-0.193303
0.271091	0.437155	0.229766
-0.208329	0.0116809	0.196858
-0.202224	0.217842	0.20439
0.100634	-0.16547	-0.381053
0.35492	-0.16547	-0.478102
0.229816	-0.16547	-0.366445
0.320278	-0.174833	-0.322606
-0.267462	-0.192139	-0.543323
0.106665	-0.17871	-0.509796
-0.26953	0.448769	0.244212
-0.249792	0.467816	0.249634
0.147069	-0.0432533	0.180969
0.244063	0.0460214	0.18451
0.373434	-0.16547	-0.153027
-0.319061	-0.178387	-0.490445
-0.287703	0.11234	0.208504
-0.265583	-0.174833	-0.0390537
-0.239492	0.422115	0.244346
0.241795	0.083885	0.191121
0.164773	0.305447	0.214526
0.0555693	-0.19002	0.0681643
-0.339242	0.0887479	0.205774
-0.333163	-0.16547	-0.0190779
0.150626	0.333246	0.234064
-0.357222	-0.735091	0.0552016
-0.0430301	0.13874	0.195238
-0.0627036	0.488842	0.252067
-0.122085	0.0854448	0.191348
0.230582	0.289482	0.212679
0.191305	-0.16547	0.0240368
0.0922703	0.323165	0.216576
0.181089	0.108362	0.194682
0.196113	-0.174833	0.00312044
-0.373321	0.0467996	0.1846
-0.207629	0.523353	0.25606
-0.333808	0.369228	0.238227
-0.166994	0.0517772	0.185176
-0.0380648	0.190737	0.217576
0.173685	0.507621	0.237919
-0.141859	-0.0870625	0.1815
-0.289336	-0.205631	-0.565341
0.190765	-0.180769	-0.471438
0.173299	-0.0763799	0.186358
-0.320215	0.0593112	0.202369
-0.253901	-0.16547	0.0200328
0.0410298	0.213672	0.203908
-0.210718	0.328901	0.226771
0.380411	-0.267936	0.0579355
0.0382736	0.300692	0.213977
-0.225606	0.342019	0.235078
0.299151	-0.16547	-0.322
0.37998	-0.728378	-0.478184
-0.231642	0.458786	0.232269
-0.202621	0.199497	0.218588
-0.0744751	-0.187858	0.0684489
0.244703	0.104665	0.207617
0.261621	-0.175661	-0.52973
-0.366371	-0.682465	-0.470074
0.363364	-0.276323	0.0673436
-0.178489	-0.16547	-0.401806
0.301391	0.127326	0.193918
0.204594	0.032407	0.182934
-0.0533234	0.415663	0.227279
-0.204608	-0.174833	-0.36095
-0.36111	-0.277569	-0.472888
0.316862	-0.173487	0.0883458
-0.0455211	0.10296	0.20742
0.324861	0.430003	0.241481
-0.370841	0.0585033	0.202275
0.371807	-0.401303	-0.470198
0.260946	0.131762	0.210753
0.0640011	0.183781	0.200449
0.37318	-0.16547	-0.266703
-0.141512	0.359741	0.237129
0.373033	-0.186995	-0.532556
-0.10479	-0.16547	-0.0682127
0.0407571	-0.16547	-0.10009
-0.123587	0.426741	0.22856
-0.0136649	-0.139267	0.143954
0.113675	0.154705	0.213407
0.12754	0.031193	0.199116
-0.264331	-0.16547	0.0632912
-0.363149	-0.33811	0.0458708
-0.209167	-0.174833	-0.144029
0.203881	0.159633	0.197656
-0.136176	0.266346	0.226324
0.164376	-0.177237	0.0493141
-0.324183	-0.16547	-0.40027
-0.366285	-0.174833	-0.354937
0.275438	-0.208303	-0.583981
-0.0498902	0.0469661	0.185748
-0.369816	-0.501576	-0.493939
0.370108	0.0423725	0.200409
0.265445	0.204957	0.202899
-0.0786601	0.435124	0.242227
-0.194711	-0.18046	-0.471676
-0.106621	-0.174833	-0.028859
0.0309987	0.515966	0.253989
0.27408	0.31061	0.231446
-0.304265	0.21325	0.203859
-0.148559	0.154813	0.201441
0.361078	-0.16547	-0.390465
0.225089	-0.0911908	0.183927
0.0805185	-0.177946	-0.535247
-0.144343	-0.16547	-0.246315
-0.202331	0.127461	0.193933
-0.130051	0.491467	0.23605
0.141329	-0.207339	-0.567753
-0.339432	-0.188375	0.0444257
-0.240406	-0.16547	0.0386945
-0.077986	-0.174833	-0.45996
-0.267349	-0.174833	0.0307578
-0.133662	0.226621	0.211889
0.174004	-0.21035	-0.571667
0.0190429	0.36062	0.231386
-0.226937	-0.221768	-0.593238
0.380438	-0.471996	0.055075
-0.249864	-0.187982	-0.469828
-0.0350971	0.209377	0.20938
-0.300944	0.0149102	0.197232
0.223178	0.478378	0.248519
-0.0652743	0.555832	0.259819
-0.323283	0.433022	0.229288
-0.328589	-0.169242	-0.510684
0.123617	-0.16547	-0.176432
-0.357452	0.00062975	0.195579
0.2447	0.270928	0.226855
0.303528	0.0125365	0.196957
0.319172	0.196763	0.207544
0.197248	0.140019	0.195386
-0.32824	0.152444	0.196823
0.0280428	-0.183321	0.0448683
-0.193572	0.228788	0.221977
0.338374	0.1383	0.199038
-0.189519	0.00690212	0.196305
-0.14873	-0.16547	-0.433576
0.103779	0.420751	0.240135
0.380051	-0.709581	0.0528976
0.0463101	0.235884	0.206478
-0.0225886	0.31847	0.225253
0.282479	0.00225497	0.179799
0.158775	0.259786	0.216714
-0.33342	0.202107	0.20257
0.272243	-0.0823029	0.183973
0.0633838	0.393428	0.241027
-0.0889607	0.047492	0.201001
-0.271013	0.391943	0.224534
-0.370348	-0.316335	0.0684141
0.358849	-0.476477	-0.489145
0.150468	0.536434	0.256967
0.238829	0.445745	0.247081
-0.358355	-0.282985	0.0511415
-0.333381	0.0525367	0.186559
-0.348606	-0.177883	-0.506797
0.200056	0.367002	0.221649
0.291751	0.155465	0.197173
0.159165	-0.112114	0.171638
0.118081	0.0530286	0.185321
0.268203	-0.182215	-0.47077
0.0369691	-0.16547	-0.473812
-0.317743	-0.0533413	0.189334
-0.0623649	-0.174833	-0.340244
0.0959838	-0.16547	-0.212994
-0.191488	0.543376	0.242056
0.34601	-0.16547	-0.239686
0.0907012	0.111637	0.208424
-0.152866	-0.00319416	0.179576
0.256682	0.252632	0.224737
0.0868212	-0.0233502	0.192805
-0.381267	-0.602817	-0.482742
0.123139	0.121145	0.196542
-0.112768	0.527868	0.240262
-0.0257361	0.185759	0.200678
-0.164603	-0.168355	0.109204
-0.172871	-0.16547	-0.0677483
-0.0823488	0.513165	0.238561
0.159034	0.374224	0.238805
0.357824	0.25334	0.219677
0.3374	0.507487	0.240407
-0.178586	-0.16547	-0.439747
0.177847	0.517803	0.255418
-0.357533	-0.467074	0.0596805
0.27539	0.40416	0.225948
-0.172246	-0.0627264	0.188248
0.306109	-0.196369	-0.568465
-0.01142	0.0825529	0.188737
0.152095	0.554415	0.243334
-0.00242088	0.140148	0.199307
-0.25778	0.393404	0.241024
0.31241	-0.174833	-0.21934
-0.340521	-0.0337659	0.191599
0.221182	0.146742	0.212486
-0.0533685	0.286958	0.212387
0.0261488	0.489665	0.235841
-0.334735	0.412857	0.226955
-0.251149	-0.190503	-0.493454
-0.184088	-0.186353	0.0684787
-0.289982	0.340138	0.234861
-0.122666	0.00528453	0.179993
-0.118176	-0.162829	0.0943302
-0.3239	0.0408501	0.200232
-0.298769	-0.138109	0.159676
0.236918	0.174686	0.215718
-0.160323	0.491214	0.250388
-0.340494	0.317225	0.225072
0.195089	-0.16547	-0.405735
-0.20353	0.442662	0.243323
0.145018	-0.16547	-0.253608
0.274257	-0.175668	0.0605641
0.163638	-0.173953	0.0852602
-0.186225	0.317326	0.225087
-0.308088	-0.16547	-0.332827
0.00910445	-0.174833	-0.38026
-0.363193	-0.375172	-0.471307
0.252938	-0.16547	0.0334186
-0.0392639	0.447878	0.231006
-0.262648	0.125892	0.210072
0.0183095	-0.0330174	0.180082
-0.359901	-0.52206	0.0640575
0.103753	0.263712	0.226019
0.354155	0.180877	0.216435
-0.317289	0.233708	0.206226
-0.292211	0.080378	0.204807
-0.295439	-0.193584	-0.491996
0.256501	-0.16547	-0.110991
0.138936	0.344117	0.219001
0.141199	0.152345	0.196812
0.251548	-0.199146	0.0563485
0.115054	-0.174833	-0.443397
-0.126617	-0.0637673	0.183837
-0.0876702	0.151205	0.213001
0.0107821	-0.16547	-0.332827
-0.146687	0.0433402	0.185221
0.354545	0.000884613	0.195609
0.371237	-0.410937	-0.493651
0.232859	0.466942	0.233213
-0.23118	0.382446	0.223436
0.134945	-0.0869443	0.181561
-0.308752	0.541567	0.241847
0.265845	0.0827508	0.190955
-0.176148	0.218339	0.220768
0.182356	0.303201	0.223031
-0.0856992	-0.174833	-0.10213
0.246386	-0.174833	-0.160657
0.0111397	-0.174833	-0.0450733
-0.262121	-0.193191	0.0459634
-0.358205	-0.722366	-0.486757
-0.228163	-0.183619	-0.493512
-0.359524	0.194726	0.201716
-0.0440406	0.0131176	0.197024
-0.0166909	0.278444	0.211403
-0.0448828	0.520453	0.254641
-0.22092	0.136167	0.19494
-0.114167	-0.174833	-0.143521
0.115499	0.187242	0.206159
-0.103545	0.430943	0.229047
0.303444	0.549538	0.258873
-0.175492	0.165805	0.198369
0.140285	-0.174833	-0.311376
0.186163	-0.16547	-0.165663
0.216111	-0.143083	0.138844
-0.268335	0.470114	0.2499
0.0668771	0.263842	0.209713
0.127491	0.137291	0.211392
-0.257937	0.327306	0.217056
0.162298	0.0921691	0.18985
0.207413	0.412069	0.226863
-0.232006	-0.114035	0.169727
0.108454	0.0805776	0.20483
0.0211476	0.263483	0.225992
0.242861	0.0175591	0.181469
-0.187688	0.140425	0.195433
0.225255	-0.16547	-0.0887508
0.0825429	0.236869	0.21338
-0.115333	0.490633	0.252274
0.270964	0.149004	0.212747
-0.357817	-0.16547	-0.113292
0.0653544	-0.174833	-0.179347
0.259374	0.489104	0.235777
0.108419	-0.174833	-0.337049
0.308557	0.488398	0.235695
0.168443	0.132914	0.194564
0.213613	-0.16547	-0.226229
-0.105838	0.0269664	0.182306
0.379189	-0.592955	-0.487443
-0.149571	0.0268712	0.198616
0.127489	0.289905	0.22905
0.0172129	-0.15254	0.123001
-0.211571	-0.16547	-0.295221
-0.185121	0.292785	0.229382
-0.00811553	0.0380218	0.199905
-0.250214	-0.174833	0.0727775
0.130682	0.221416	0.221125
0.188526	0.212458	0.220089
0.291284	-0.214796	-0.577179
0.0342031	-0.00988282	0.179427
0.0284963	0.0176152	0.181223
0.356388	-0.596606	-0.481146
-0.372366	0.112365	0.198989
-0.347106	0.231137	0.222249
-0.329425	0.495297	0.252814
-0.323642	-0.16547	0.0590569
0.335221	0.350034	0.236007
0.0643187	-0.174833	-0.0991172
-0.38128	-0.263899	-0.48107
-0.0706594	0.5343	0.241006
-0.181813	0.428597	0.228775
0.215336	-0.16547	-0.0321715
-0.255046	-0.175142	-0.484203
0.363868	-0.707551	-0.470708
0.166346	0.356539	0.23676
-0.0622227	0.441968	0.246644
-0.243423	-0.16547	-0.41585
-0.160452	-0.126361	0.170545
0.213872	-0.18124	0.0457153
0.0460247	0.160425	0.197747
-0.0282515	0.236311	0.206528
-0.380456	-0.782136	0.0607909
-0.295073	0.474103	0.234041
0.104576	0.341918	0.218746
0.261996	-0.0457289	0.190215
0.342876	-0.139852	0.157741
-0.0553484	-0.174833	-0.263451
-0.0114818	0.388997	0.240515
0.237671	-0.174833	-0.0257386
-0.256124	0.0738533	0.18773
-0.328252	0.537984	0.241432
-0.169814	-0.174833	0.0713698
-0.231816	0.513962	0.253697
0.120751	0.256238	0.225155
